ncols 200
nrows 101
xllcorner 280000
yllcorner 691550
cellsize 50
10 10.2 10.5 11 12.5 14.1 20.3 20.2 20.2 22.3 25.4 24.1 24.1 24.1 24.1 24.3 29.9 24.2 24.3 32.9 31.4 25.2 25.4 28.4 29.4 29.8 32.7 35 35.3 36.2 34.6 31.7 20.2 13.3 13.1 12.8 12.5 12.2 12 11.8 11.7 11.6 11.5 11.3 10.9 10.4 11 11.7 12.2 12.3 12.4 12.2 12.3 12.3 12.3 12.1 12 12.1 12.2 12.3 12.4 12.4 12.4 12.5 12 11.9 11.9 11.9 11.9 11.9 12 12 12.1 11.9 11.7 10.3 10.3 10.5 9.3 9.9 10.7 11.5 11.7 11.1 12.1 12.3 12.3 12.4 12 9.9 11 11.2 11.4 12.5 12.6 12.7 10.8 13.2 13.3 13.2 13.3 13.2 12.6 10.5 12.3 12.2 12.4 12.8 12.9 12.5 12 11.8 12.1 12.1 11.8 11.6 11.8 12.7 12.7 12.7 12.6 12.5 12.5 12.4 12.3 12.3 12.2 12.1 12.5 15.2 15.4 15.1 7.4 9.7 9.3 9.1 8.8 9.6 10.2 10 7.3 10.7 11.2 11.5 10.9 10.3 11 11.1 11.3 11.5 11.7 11.8 11.9 12.1 12.2 12.3 12.5 12.5 12.4 12.4 12.6 12.7 13.1 13.3 13.3 13.4 13.5 13.2 12.9 12.8 12.3 11.4 11.1 10.7 10.5 10.3 10.1 11.1 10.6 10.4 10.5 10.3 10.6 10.6 10.7 11.1 11.2 11.4 11.5 11.6 11.6 11.6 11.5 11.6 11.6 11.9 13.2 13.4 12.9 10.1
10 10.5 11 11.3 12.1 13.6 20.2 20.1 20.7 22.1 25 24.1 24.1 24.1 24.1 28.8 30.9 26.2 29.5 34.8 29.8 24.6 24.4 30.7 36 34.7 34.7 35.5 35.8 36.7 36.7 32.5 19.3 13.1 12.8 12.5 12.3 12.2 12.1 12 11.8 11.6 11.5 11.3 11.1 10.7 11 11.7 12.3 12.3 12.4 12.3 12.3 12.4 12.4 12.4 12 12.1 12.2 12.3 12.3 12.3 12.3 12.4 12.4 11.9 11.8 11.9 11.9 12 12.1 12.1 12.1 12.1 12 11.1 11.1 11.3 10.2 9.3 10.1 10.9 11.2 11 12.4 12.3 12.2 12.2 11.8 10.8 10.6 10.8 11.1 12.1 12.2 12.3 12.3 12.3 12.4 12.4 12.3 12.1 11.8 11.9 12.1 12 12.5 12.9 13.1 12.4 11.7 11.3 12 12.7 12 11.5 11.4 13 13 13 12.9 12.8 12.8 12.7 12.6 12.5 12.4 12.3 12.5 16.6 16.7 8.8 9.4 9.3 9.6 9.9 10.6 9.6 10.1 9.4 9.1 10.4 11.7 10.8 10.9 10.7 10.7 10.9 11.1 11.3 11.4 11.5 11.7 11.8 12 12.2 12.3 12.4 12.3 12.3 12.5 12.7 12.6 12.4 12.4 12.4 12.3 12.1 12 11.9 11.6 10.8 10.5 10.4 10.3 10.1 9.9 10.5 10.4 10 10.1 10.3 10.4 10.6 10.7 11 11.2 11.5 11.4 11.5 11.5 11.5 11.7 11.9 11.9 11.6 13.1 11 10.7 12.9
10.1 10.7 11.2 11.8 12.2 13.2 18 20 21.1 22.5 24.1 28.3 25 26.9 30.6 30.8 30.9 29.6 29.9 30.8 26.7 24.3 23.9 29.7 35.9 35.9 35.6 35.9 36.3 36.8 34.5 29.8 15.3 12.9 12.7 12.6 12.5 12.4 12.2 12.1 12 11.7 11.5 11.3 11.2 11 11 11.7 12.4 12.4 12.3 12.4 12.4 12.4 12.5 12.5 12.2 12.1 12.1 12.1 12.2 12.2 12.2 12.2 12.3 12 11.8 11.9 12 12.1 12.2 12.2 12.2 12.2 12.2 12 11.8 11.6 11.3 9.7 9.6 10.2 10.7 11.6 12.1 11.8 11.6 11.8 11.3 11.7 10.2 10.5 10.9 11 11 10.9 11.5 12 11.9 11.8 11.9 11.5 10.2 10.8 11.2 11.5 12.3 12.1 11.9 11.2 10.5 11.1 11.9 12.9 12.7 11.9 11.2 12.5 13.3 13.3 13 12.6 12.6 12.9 12.9 12.2 11.3 10.4 11 12.9 12.7 9.5 6 8.8 10.4 11 9.9 9.5 9.9 9.6 9.4 6.5 11.1 10.2 9.8 11.3 10.5 10.7 10.9 11 11.1 11.1 11.2 11.3 11.5 11.7 11.9 12.1 12.1 12.3 12 11.8 11.5 11.4 11.2 11.2 11.1 11 11.3 10.8 11.1 10.4 10.3 10.2 10.1 10 9.7 9.9 10 9.6 9.9 10 10.3 10.6 10.8 10.7 10.8 11 11 11 11 11 10.7 12.6 10.7 11.4 12.8 13.3 8.2 10.7
10.3 10.9 11.4 12 12.5 13 15.6 19.9 21.5 22.9 24.4 31.6 35.6 35 34.2 30.1 27.8 26.2 28 26.6 24.1 24.1 24.1 24.2 30 34.8 35.8 36.1 36.4 33.7 30.7 22 14.2 13.1 12.9 12.7 12.6 12.5 12.3 12.2 12.1 11.8 11.6 11.4 11.2 11 9.4 11.2 11.7 11.7 12.3 12.3 12.4 12.5 12.5 12.6 12.5 11.9 11.9 11.9 12 12 12.1 12.2 12.3 12.1 11.8 11.9 12 12.1 12.2 12.3 12.3 12.3 12.2 12.2 12.1 12 11.8 10.6 9.3 9.8 10.7 11.6 12.3 11.6 11.2 11 10.8 10.3 9.8 9.9 9.8 9.7 9.7 9.6 10.1 11.5 11.4 11.3 11.8 11.2 9.6 9.9 10.3 10.8 10.8 10.9 10.6 9.8 9.8 10.6 11.9 12.6 12.4 11.4 11.8 12.2 12.4 12.2 11.9 11.7 11.6 11.8 11.8 10.8 9.8 6.8 8.7 8.7 8.9 8.9 10.3 9.9 9.6 9.4 9.8 9.8 10 9.1 9.7 10.3 10 6.5 10.1 10.7 10.3 10.4 10.6 10.7 10.8 10.8 10.7 10.9 11 11.2 11.4 11.6 11.6 11.3 11 10.7 10.5 10.3 10.5 10.5 10.4 10.4 10.7 11.3 10.7 10 9.9 10 9.9 9.7 9.4 9.4 9.9 9.4 9.8 10.1 10.4 10.7 10.9 11.1 11 10.6 10.7 10.6 10.5 10.4 10.1 7 8 11.7 12.1 12.5 12.6 10.5
10.5 11.1 11.6 12.2 12.7 13.3 13.8 20.3 21.9 22.9 24.1 36.3 34.7 32.2 29.9 28 25.6 24.5 26.6 25.6 23.5 24.1 24 24 24.9 28.9 32.8 36 36 30.9 25.6 17.8 13.6 13.4 13.1 12.9 12.7 12.6 12.5 12.3 12.2 12 11.6 11.5 11.3 10.8 10.1 10.3 10.7 11.8 12.2 12.1 12.1 12.2 12.3 12.3 12.5 11.8 11.8 11.9 11.9 12 12.1 12.1 12.3 12.2 11.8 11.9 12 12.1 12.2 12.3 12.3 12.3 12.3 12.3 12 11.8 11.7 11.3 9.4 9.5 10.6 12.1 12.1 11.9 10.9 10.5 10.3 10.1 9.8 9.5 9.4 10.3 9.1 9.6 10 10.3 9.1 10 11.7 12.3 8.9 9.5 10 10.3 10.4 9.8 9.8 9.8 9.7 9.6 11 10.6 11 10.9 11.3 10.9 10.8 10.9 11.1 11.2 11.4 11.7 11.9 10.5 8.9 8.8 9.8 9.6 8.7 8.1 8.7 9.3 9.8 9.8 10 10.1 10 9.2 9.5 9.5 10 10.4 10.9 7.1 10.2 10.2 10.3 10.5 10.5 10.5 10.4 10.4 10.5 10.7 10.9 11.5 11 10.4 10.1 9.8 9.5 9.5 9.4 10 10.5 10.5 9.8 10.8 10.1 9.6 9.5 9.6 9.7 9.5 9.3 9.4 9.9 8.6 9.9 10.2 10.5 10.7 10.9 11.2 11.4 11.3 8.7 10.6 11 10 10 10.9 8.5 11.7 12 10.4 9.8 9.8
10.7 11.3 11.9 12.6 13.3 14 14.6 20.5 21.9 23.7 25.3 37.5 36.8 34 31.6 29.9 27.9 25.6 25.4 26.9 26.2 24.5 24.1 24.1 25.2 26.7 28.5 31.7 31.3 26.2 21.1 14.6 13.8 13.6 13.4 13.2 13 12.7 12.6 12.4 12.3 12.2 11.7 11.5 11.3 10.6 10.3 9.6 10.6 11.9 12.1 12 11.9 11.9 12 12.2 12.4 11.9 11.9 11.8 11.9 12 12 12.1 12.3 12.3 11.7 11.8 12 12.1 12.2 12.3 12.4 12.4 12.4 12.3 12 11.8 11.6 11.4 10.1 9.6 11.2 11.6 11.8 11.6 11.1 10.8 10.4 10.1 9.8 9.5 9.2 9.5 9.1 9.4 10.1 10.8 10 10.1 10.2 10 8.8 9.2 9.5 9.9 10.3 9.6 9.5 9.8 9.8 9.8 9.4 8.9 7.5 9.5 10.5 10.5 10.5 10.6 10.8 10.9 11 11.4 11.7 10.1 8.2 9 9.7 9.2 8.6 6.6 8.8 9.3 9.9 10 10.1 10.3 10 9.4 9.4 9.6 10.1 11.5 11.3 11 9.5 9.9 10 10.3 10.2 10.2 10.1 10.1 10.1 10.4 11 10.8 10.4 9.6 9.2 9 9.1 8.6 8.5 8.8 10 10 10.3 10.2 9.7 9.4 9.4 9.5 9.7 9.7 10.1 9.9 9.9 10.3 10 10.3 10.6 10.8 11 11.2 11.4 11.6 11.1 9.9 10.8 11.2 12.1 12.5 11.2 10.7 7.2 10.7 9.8 9.8
10.6 11.3 12 12.7 13.4 14.1 14.8 19.1 21.7 23.2 28.2 39 39.3 37 34.7 32.7 31.6 30.5 32.7 34.3 33.8 29.9 26.1 26.6 26.5 28.1 30.2 29.8 27.5 24.3 19.2 14 14 13.9 13.7 13.4 13.2 13 12.8 12.6 12.4 12.3 11.9 11.6 11.1 10.9 10.8 9.7 10.9 11.8 11.9 12 11.7 11.7 11.8 12.1 12.3 12 12 12 11.9 11.9 12 12.1 12.3 12.2 11.7 11.9 12.1 12.1 12.2 12.3 12.4 12.4 12.4 12.3 12 11.8 11.6 11.4 10.4 9 10 11 11.1 11.1 10.8 10.7 10.4 10.1 9.7 9.4 9.2 8.9 9 9.2 10 10 9.7 9.7 9.9 9.8 8.6 8.9 9.1 9.4 9.8 9.4 9.2 9.6 9.8 9.5 8.8 8 7.6 9.4 10.2 10.5 10.2 10.4 10.5 10.7 10.8 11.2 11 11.2 6.4 9 8.9 7.4 6.5 9.3 9.5 9.5 10 10.2 10.3 10.4 10.1 9.8 10.3 12.2 14.5 15.4 15.1 13.7 12.6 10.6 9.7 9.1 10.2 10.3 10.3 10.1 9.9 10.7 10.6 10.1 9.7 8.6 8.4 8.4 8.7 8.5 8.1 7.4 9.5 10.4 10.4 10.4 10.1 9.2 9.2 9.8 9.9 10.1 10.7 10.2 10.2 10.4 10.1 10.4 10.7 10.9 11.1 11.3 11.5 11.6 11.2 10.5 10.1 11 12.2 13.4 14.6 14.8 14.1 13.3 11.9 8.3
10 10.3 11 11.7 12.4 13.1 13.9 17.5 22.4 23.2 33.7 42.5 41.8 40.1 37.8 35.6 34.5 33.4 35.4 36.9 35.4 31.1 30 29.9 29.5 29 29.8 28.5 27 25.3 19.2 13.9 13.5 13.4 13.3 13.2 13.1 13 12.9 12.8 12.6 12.4 12.1 11.6 11.5 11.5 11.1 10.2 10.8 11.7 11.8 11.9 11.7 11.4 11.7 12 12.2 12.1 12.1 12.2 12.1 11.9 12 12.1 12.2 11.8 11.8 12 12.1 12.1 12.2 12.3 12.4 12.5 12.5 12.3 12 11.8 11.7 11.5 11.9 10.1 8.9 9.9 10.5 10.7 10.4 10.4 10.3 10 9.7 9.4 9.1 8.9 8.6 9 9.7 9.3 8.7 8.8 9.3 9.6 8.1 8.4 8.8 9.1 9.5 9.2 8.8 9.1 9.3 9.5 8.8 8.6 7.8 9.2 9.6 10.1 9.9 10.1 10.2 10.4 10.5 10.5 10.4 10.5 6 9.5 10.1 10 9.3 9.8 10.1 10.2 10.3 10.3 10.4 10.5 10.2 10.5 10.9 15.7 20.5 20.5 18.7 17.4 16.2 12.1 8.6 9.6 10.8 10.6 10.4 10.1 9.8 6.5 9.9 9.6 8.8 7.9 7.9 8 8.4 6.5 12.5 12.7 10.8 10.7 10.5 7.7 6.8 9.9 9.8 10.2 10.2 10.9 10.5 9.7 9.9 10.6 9.7 10.5 10.7 10.9 11.1 11.3 11.5 11.6 11 10.6 9.7 11.2 12.9 14.8 18.1 19.4 18.3 17.1 16 15.6
9.8 10 10.3 10.7 11.4 12 13.2 16.2 22.2 25.3 38 44.8 43.5 42.1 40.8 38.6 37.4 36.3 37.1 38.3 37.6 37.6 37.1 35.1 32.6 28.9 28.5 27.1 25.7 24.3 19 14.1 13 12.9 12.8 12.8 12.7 12.6 12.5 12.4 12.3 12.3 12.2 11.7 11.9 12.1 11.3 10.4 9.5 11.3 11.4 11.6 11.7 11.8 11.9 11.9 12.1 12.2 12.3 12.4 12.2 11.9 11.9 12 12 11.9 11.9 11.9 12.1 12.2 12.3 12.3 12.4 12.5 12.5 12.4 12.2 12 11.9 11.7 11.9 11.5 8.7 10 10.1 10.1 9.9 10 10 9.9 9.6 9.3 9.1 8.8 8.6 9 9.1 8.7 8.3 6.8 8.2 8.7 8.1 8.4 8.7 8.9 9.2 8.9 8.4 8.7 8.9 9.2 9.2 7.9 7.7 8.5 9.2 9.6 9.8 9.8 10 10 10 9.8 9.8 9.9 6 10.1 10 9.9 10.2 10.6 11.4 11.8 11.8 11.2 11 10.8 11.1 11.5 13.8 20 24.2 24.5 22.5 20.6 18.8 13.3 11.5 11 8.2 9.9 10.2 9.9 7.1 10.6 6.5 7.9 7.9 8.3 7.3 8.9 9.9 12.5 12.3 11.7 10.6 6.5 10 10.3 10.9 7.1 10.6 10.6 10.6 10.6 7.1 10.2 10.2 10.1 10.2 10.2 10.7 10.9 11.1 11.3 11.5 11.4 11 10.7 9.9 12.6 14.4 16.7 22.2 24 22.9 21.8 20.6 19.8
9.5 9.8 10 10.3 10.6 11 12.5 14.2 21.4 26 38.8 46.8 47.1 45.3 43.5 41.7 40.4 39.2 38.8 41.1 41.7 40.1 41.8 38.5 35.1 29.6 27.4 26.2 24.9 23.6 17.4 14.1 12.6 12.5 12.4 12.3 12.3 12.2 12.2 12.2 12.2 12.2 12.3 11.8 11.8 11.8 11 10.2 8.7 10.1 10.9 11.6 12.1 12.3 12.4 12.6 12.7 12.6 12.4 12.3 12.1 11.9 11.9 11.9 11.9 11.9 11.9 11.8 12.2 12.2 12.3 12.4 12.5 12.5 12.4 12.3 12.3 12.2 12.1 11.9 11.9 11.4 10.2 9 10 9.5 9.5 9.5 9.6 9.6 9.5 9.2 9 8.6 8.9 9.1 9 8.4 8.1 7.5 8 8.6 9 8.2 8.4 8.6 8.9 8.7 8.7 9.1 9.3 9.3 9.2 7.7 9.4 9.5 9.8 9.1 9.3 8 8 8 8.1 8.5 8.8 8.6 6.8 9.7 9.6 9.9 11.3 12.2 12.6 13.7 12.9 12.3 12.5 12.5 12.4 13.1 18.9 23.7 25.6 26.6 25.1 22.7 18.5 14.6 13.8 12.9 11.8 10.5 7.1 9.1 9.9 10.4 9.6 7.8 9.3 8.5 10.2 11.7 10.8 12.5 12.4 12.3 12.3 10.9 10.9 11.1 11.2 9.5 9.6 10.7 10.2 8 10.4 10.4 10.2 10 9.9 9.8 10.3 10.7 11 11.3 11.5 11.3 11.1 10.8 10.3 12.6 14.8 18.7 24.8 27.5 27.2 26.5 25.3 24.1
9.2 9.7 10.3 10.8 10.8 10.6 12.1 13.8 21.2 25 36.6 49 50.4 49 45.5 41.8 41 40.2 38.9 41.2 40 41.3 43.1 38.6 38.4 33.9 29.8 26 24.5 23 16.9 13.7 12.2 12.2 12.1 12.1 12.1 12.1 12.1 12.1 12.1 12.1 12.2 11.9 11.7 11.6 10.8 9.9 8.7 9.7 10.8 11.5 12 12.1 12.5 12.6 12 12 12.2 12.1 12 11.9 11.9 11.9 11.9 11.8 11.8 11.7 12.2 12.3 12.4 12.5 12.5 12.4 12.3 12.2 12.1 12.1 12 11.9 11.8 11.3 10.7 9 7.8 9.2 9.7 9.6 9.5 9.4 9.3 9.1 8.8 8.7 9 9.1 8.8 8.3 7.8 7.5 8.1 8.7 9.2 8.2 8.4 8.6 8.7 8.4 4.8 9.2 9.1 9 8.9 8.6 9.9 9.2 5.1 9.1 9.6 9.7 9.6 9.8 9.9 9.7 9.5 9.1 10.2 11.2 11.4 12.7 14.3 15.6 15.7 17.5 17.3 16.8 15.1 15.2 15.4 18 23.6 25.8 27.9 27 26.5 24.6 20.6 17.8 16.2 15.7 14.6 13.3 12.8 10.7 10.6 11.1 11.1 10.1 10.1 10.7 9.3 11.6 12 12.2 12.3 12.3 11.8 10.5 11.6 11.5 11 10 10.8 10.7 10 10.1 10.7 10.7 10.6 10.3 10 10.2 9.9 10.3 10.6 11 11.8 11.7 11.2 7 10.5 12.4 14.1 19.7 26.5 30.3 31.2 30.8 30.4 29.2
10.6 11 10.9 10.7 10.6 10.4 11.1 13.2 21.1 23.5 31.8 48.9 51.5 49.3 45.1 41.4 39.7 39.1 38.7 37.6 37.3 38.3 36.6 36.5 34.1 36.7 33.7 29.9 26.2 22.2 17.5 13.8 13.1 12.5 12 12 12 12 12 11.9 11.9 12 12.1 12 11.7 11.3 10.5 9.7 9.1 9.3 11 11.5 11.4 11.3 12.1 11.3 11.3 11.2 11.3 11.5 11.7 11.9 11.9 12 11.9 11.8 11.7 11.7 11.9 12.5 12.5 12.4 12.3 12.2 12.1 12.1 12 11.7 11.4 11.1 11.1 10.9 10.6 9.5 7.6 9.1 9.3 9.2 9.1 8.9 9 8.8 8.6 8.8 9 9.1 8.7 8.3 7.7 7 8 8.6 8 8.2 8.4 8.5 8.6 8 8.3 7.4 8.8 8.8 8.8 9.4 9.6 9.2 8.1 9.5 10 10.2 11.2 11.8 11.9 11.7 12.1 12.8 16.1 16.5 17.6 20.1 23.2 24.5 24.8 24.8 24.9 24.4 23.4 21.8 21.9 24.4 25.5 25.8 26.1 25.3 24.8 24.3 23 21.4 19.8 18.2 17.4 15.4 13.8 12.5 12.6 12.1 11.7 11.7 11.9 11.6 9.1 8.9 11.1 12.3 12.3 11.9 11.4 11 10.5 11.4 11.4 11.2 11.3 11 10.1 11.1 11.1 10.7 10.9 11.1 11.4 7.3 8 9.7 7.1 10.5 11.5 11.6 11 10.8 9.3 11.1 12.2 17.7 27.4 33.1 34.7 35.4 35.3 34.4
10.7 10.4 10.7 10.5 10.3 10.2 10.5 12.3 19 23 27.9 39.9 51.6 49.9 45.7 41.2 38.4 38.1 38 37.9 35.9 34.2 33.8 32.7 30.7 31.3 33.1 30.1 25.5 20.8 16.1 14.7 14 13.4 12.7 12.1 11.8 11.8 11.8 11.8 11.8 11.9 12 12 11.6 11.1 10.5 10.2 9.6 9.5 11 10.9 10.8 10.8 10.8 10.8 10.6 10.5 10.5 10.7 11 11.2 11.4 11.6 11.5 11.6 11.7 11.6 11.7 12.3 11.9 11.9 12.2 12.2 11.7 11.2 10.9 10.6 10.4 10.5 10.4 10.4 10.2 9.3 8.2 8.4 8.8 8.7 8.5 8.7 8.8 8.6 8.4 8.8 9 8.9 8.6 8.2 7.7 6.3 7.6 4.2 8.1 8.1 8.4 8.6 5.8 8 8.9 8.8 8.7 8.7 8.5 6.2 10.4 8.1 7.7 10.5 10.9 13 18.3 14 16.1 17.3 18.8 21 23.3 24.3 26.6 26.4 27.9 29.2 28.9 29 29.3 29.3 28.3 27.3 26.7 27.3 26.7 27.5 27.4 27.2 27.1 27.8 25.1 25.4 24.8 23.3 21.1 18.9 16.3 14.3 13.1 12.6 12.3 12.4 12.5 12.1 10.6 9.1 10.4 11.8 12.4 12.7 12.8 11.9 11.2 11.5 11.6 11.5 11.5 11.4 10.6 11 11 10.8 11.1 11.6 11.9 10.9 11.6 10.9 10.6 10.3 8.8 12.7 9.4 11.3 11.4 14.7 18.1 24.1 28.9 34.4 36.9 38.3 38.1 38.2
9.9 9.3 9.8 10.3 10.1 10 10.3 11.6 16 23.3 24.5 33 44.8 47.4 44.7 40.7 38.3 38.7 37.7 37.3 38 49.1 51.6 40.2 31.4 26.7 25.2 26.2 22.5 19.4 16.2 15.6 14.9 14.3 13.6 13 12.3 11.7 11.7 11.7 11.7 11.8 11.9 12.1 11.5 11.1 10.6 10.4 10.3 8.5 10.5 10.4 10.4 10.4 10.5 10.6 10.5 10.4 10.3 10.3 10.2 10.5 10.7 10.7 10.6 10.4 10.3 10.4 11.1 11.2 11.2 11.2 11.3 11.5 10.9 10.4 10 9.7 9.8 9.7 9.1 9.1 9.8 9.2 8.5 7.8 6.7 8.1 8.3 8.5 8.5 8.3 8.2 8.6 8.9 8.7 8.4 8 7.7 7.4 7.7 8.7 4.8 6 4.8 5.4 9.2 9.7 10 9.6 9.5 9.5 9.3 9.7 9.8 12 11 12.1 12.8 19.9 21.5 18.4 20.7 23 24.9 26 28.8 29.9 30 30.1 31.2 32.2 33 33 33.3 33.4 32.9 32.3 31.3 30.3 31 29.6 28.8 31.1 28.4 29 28.5 29.3 28.5 27.7 26.9 24.2 20.6 17.2 15.1 13.6 13 13 13 12.7 11.2 10.1 9.5 9.5 11.3 12.8 13.2 12.7 11.2 11.5 11.6 11.7 11.5 11.3 10.4 10.7 11.4 11.7 11.7 12.1 12.2 12.5 13.8 12.8 11.7 11.8 11.2 9.5 12 13.9 15.2 18 23.3 29.2 33.8 36.6 38 39.3 40.4 40.8
8 8.2 8.7 9.1 9.6 9.8 9.6 9.6 15.2 21.7 24 27.8 35.5 41 42.4 39.6 38.5 39.4 40.1 40.3 54 63.2 56.9 39.7 32.7 30.3 24.1 20.4 17.8 14.8 15.1 14.9 14.7 14.6 14.4 13.9 13.2 12.6 11.9 11.5 11.5 11.7 11.4 10.8 10.5 10.3 10.3 10.6 10.8 7.9 10 10 9.9 9.8 9.6 10.5 10.4 10.4 10.3 10.3 10.2 10.2 10.1 10.1 10 10 9.9 10.2 10.7 10.9 10.8 10.7 10.7 10.6 10.7 10 9.8 9.8 10 10 9.8 9.4 9.5 9.5 9.1 8.6 7.9 7.7 6.5 7.6 8.2 8 7.9 8.3 8.6 8.2 7.6 4.4 4.8 7.6 8.4 9.3 9 7.9 8.3 8.5 10 10.2 10.3 10.1 10.2 10.2 10.4 11 11.5 11.9 16.3 23.4 25.8 26.1 25.1 24.3 26.4 28.7 30.3 30.8 31.6 31.5 32.2 32.9 34 34.4 35.4 36.7 37.1 37.2 36.7 35.8 34.8 33.4 33.3 33.4 32.5 31.3 30.7 30.5 31.8 32.6 31.8 30.9 30.1 28.1 25.3 21.8 17.7 16.3 14.4 13.5 13.6 13.3 11.9 11.2 10.4 10.7 12 12.6 13.2 13.2 12.6 12 11.4 11.9 12 11.1 12.5 13.1 12.3 12.3 12.3 13.2 13.6 14.2 15.1 16 14.6 15 16.4 14.9 18.6 15.2 17 21.5 27.7 33.3 35.5 37 37.8 38.5 41.3 42
8.3 8 8.5 9 9.4 9.8 10.2 10.6 10.7 17.1 21.5 25.7 31.1 35.3 37.9 37.9 38.7 42.1 44.6 57.7 72.8 66.7 51.9 34 32.5 31.5 28.1 22.7 21.3 16.2 15.3 14.9 14.6 14.3 14 13.7 13.2 12.7 12.2 11.7 11.3 11 10.7 10.5 10.6 10.5 10.1 9.4 9.5 7.4 8.9 8.7 8.6 9.2 10.4 10.3 10.2 10.2 10.2 10.2 10.1 10.1 10 10 9.9 9.9 9.9 10.4 10.6 10.8 10.6 10.5 10.5 10.4 10.3 10 9.7 9.8 10 10 9.6 9.2 9.1 9.4 9 8.6 8 7.6 7.9 7.5 6.7 7.7 7.7 8.2 8.1 7.9 7.2 8 8.4 8.3 9 9.7 9.6 8.7 9.1 9.5 10.2 10.4 10.6 10.8 11 11.3 11.7 12 14.6 18.8 21.4 24.7 25.8 27.5 27 27.1 29.4 31.9 32.7 33.1 33.2 33 33.2 34 34.9 36.3 37.4 38.4 39.8 41.1 39.9 38.4 37.3 35.7 35.2 34.1 33.3 31.2 33.8 33.5 34.5 35.6 35.2 34.3 33.5 32.9 30.2 27 23.2 19.8 16.2 15.4 14.2 13.9 13 12 11.2 11.9 13.4 13.7 13.9 13.9 14 12.9 11.7 12.3 12.6 11.6 12.4 13.1 12.5 13.6 14.1 15.7 16.1 16.7 17.6 19.3 21 22.5 23 23.4 23.4 21.2 17.8 21.4 31.9 34.8 36 36.3 37.4 39.1 40.6 40.8
8.8 8.1 8.6 8.9 9.3 9.7 10 10.4 11.1 11.7 15.9 20 28.1 32.6 29.2 34.7 42.1 47.8 58.6 81.2 80.6 66.1 49.2 33.6 30.8 29.5 27.8 27.4 24.7 16.4 15.8 15.5 15 14.5 14 13.5 13 12.5 12 11.5 11 10.8 10.7 10.4 10.2 10.6 10.4 9.8 9.2 7 7.5 7.8 9 10.1 10.2 10.2 10.1 10 10 10.1 10 10 9.9 9.9 9.8 9.8 10.1 10.4 10.5 10.6 10.5 10.3 10.3 10.2 10.1 9.9 9.7 9.7 9.9 9.7 9.3 8.9 8.8 9.3 9 8.5 7.9 7.5 7.9 7.6 4.3 6.8 6.1 4.2 5 5.7 9 9.2 9.1 9.1 9.1 9.7 10.3 9.4 9.8 10.2 10.9 11.5 11.3 11.7 12.6 12.9 12.7 11.3 16.1 19.8 22.9 25.8 27.6 30 30.1 30.3 31.1 33 34 34.6 34.7 34.6 34.5 35 35.7 37 38.2 39.3 41.1 43.1 42.9 41.3 39.6 37.9 36.2 34.6 34.3 34.2 35.9 36.9 37.9 38.2 38.3 37.7 36.8 35.4 34.9 32.1 29.1 26 22.4 19 16.5 15.5 14.5 13.9 12.8 12.5 13.6 14.2 14.2 15.3 14.2 13.5 11.8 12.6 13.2 11.8 12.6 12.9 12.8 14.5 15.5 18.4 18.8 19.3 20.7 23.2 24.5 25 25.8 25.9 26.2 26.7 23.5 18.9 28.8 33.6 35.6 35.3 35.1 35.5 38.5 39.6
8.9 8.4 8.5 8.8 9.2 9.5 9.9 10.3 10.6 11.3 11.5 12.9 18.1 28.3 28.4 32.8 43.2 58.9 83.5 93.2 83.3 66.9 49.9 35 28.6 27.4 26.8 26.2 22.1 15.9 14.9 14.6 14.3 14 13.6 13.2 12.7 12.2 11.7 11.2 10.8 10.7 10.6 10.3 10 9.9 10.2 10.3 9.5 7.7 7.5 8.7 9.9 10.2 10.1 10 9.9 9.8 9.7 9.8 9.9 9.9 9.8 9.8 9.7 9.9 10.2 10.3 10.4 10.5 10.4 10.2 10.1 10 9.9 9.7 9.5 9.4 9.2 9.5 9.1 8.7 8.4 8.9 8.9 8.4 7.8 7.5 8 7.6 7 7 7.7 7.6 7.9 8 8.9 9.1 8.9 8.9 9.2 9.8 10.4 10.2 10.7 11.4 12.3 12.6 12 12.3 13.2 12.7 12.7 11.2 17.7 20.5 25.8 30 29.4 31.9 31.9 32.4 32.9 33.8 34.4 35.9 35 35.2 35.5 35.8 36.5 37.7 38.9 40.1 41.6 42.7 43 44 42.4 40.6 38.5 37.2 37.5 37.4 37.8 39.1 39.9 40 39.9 39.6 39.2 38 37.7 36.6 33.7 32.1 29.3 26.1 23 19.8 17.8 15.6 14.1 15.1 15.4 15.5 14.4 16 17 15 13.1 13.4 13.1 12.8 14.7 14.1 15.1 16.5 16.8 19.3 20.8 22.5 24.3 25.9 26.7 26.6 27 27.1 26.9 27.1 26.5 24.6 30.2 30.8 30.8 33 33.5 33.6 34.7 36.7
9.8 9.8 9.8 9.9 9.9 10 10.1 10.2 10.5 10.9 11.2 11.7 12 15.6 20.7 28.6 42.7 81.8 111.1 98.6 83.1 67.4 50.8 36.3 31.3 28.2 25.3 27.1 21.9 15.5 14 13.7 13.4 13.1 12.8 12.5 12.2 11.8 11.5 11 10.6 10.7 10.5 10.2 9.9 9.7 9.6 9.8 9.1 6.9 8.5 9.7 10.1 10 9.9 9.8 9.7 9.6 9.5 9.5 9.6 9.7 9.7 9.7 9.6 9.9 10 10.1 10.3 10.4 10.3 10.1 9.9 9.8 9.7 9.5 9.3 9.2 9.1 9.2 8.9 8.5 8.1 8.5 8.9 8.3 7.7 7.6 8.1 8.1 6.2 6.6 7.1 7.6 8.1 8.3 8.4 9.1 8.9 8.6 9.3 9.9 10.4 11.2 12 12.8 13 12.6 12.1 12.1 13 12.9 12.6 12.4 17.6 19.8 22.6 28 32.4 33.4 33.3 33.2 34.1 34.5 34.7 35.3 35.4 35.4 35.8 36 36.6 38 39.4 40.2 40.6 41.1 42.1 43.1 42.6 41.6 41 39.4 39.8 39.6 39.4 40.4 40.3 40.3 40.1 39.8 39.7 39.6 40.3 40.3 39.4 38.6 36.5 33.4 30.2 27 24.3 20.3 17.3 17 17.8 18.2 17 17.2 18.9 17.1 14.8 14.9 12.6 14.3 17.5 16.2 17.4 18.8 18.9 20.1 22.2 23.8 25 25.6 26.4 27.2 28.1 28.3 28 28.2 29.5 30.2 30.6 31.4 34.5 35.4 34.8 34.6 37 38.5
10.6 11.1 11 11 11 10.9 10.9 10.9 10.8 10.8 10.4 10 10 11.6 11.8 15.8 39.6 90.8 107.1 96.4 84.3 67.8 53 38.5 35.1 32.1 31.7 34.7 26.2 15.1 13.2 12.9 12.5 12.2 11.9 11.6 11.3 11 10.7 10.6 10.6 10.6 10.4 10.1 9.8 9.5 9.4 9.5 8 7.4 9.5 10 9.9 9.8 9.7 9.7 9.6 9.5 9.4 9.3 9.3 9.4 9.5 9.6 9.7 9.8 9.9 10 10.1 10.2 10.3 10 9.8 9.7 9.6 9.4 9.2 9.1 9 8.9 8.7 8.3 7.9 8.2 8.5 7.9 7.5 7.7 8.1 7.8 7.5 7.1 6.3 8.1 8.4 8.6 8.8 8.9 8.8 8.8 9.4 10.1 10.9 12.2 13 12.9 12.8 12.5 12.3 12.1 12.8 12.7 12.8 13 18.3 20.3 23 27 31.6 33.4 33.5 33.4 33.1 32.9 33.6 34.6 36.1 37.8 43.3 45.3 45 45.5 42.2 42.5 42.4 42.3 42.5 43.4 44.5 44.1 43.8 42.8 41.9 41.7 41.3 40.9 40.7 40.5 40.4 40.1 40 39.8 40.2 40.4 41.9 42.3 42.2 40.6 37.6 35.1 31.5 28.8 25.1 22.4 20.4 20.8 19.8 19.1 18.5 17.4 16.2 15 17.6 18.8 19.1 18.3 19.7 21 21 21.8 23.5 24.8 26.1 27 27.2 28 29 30.3 30.7 31.1 31.4 31.7 29.6 31.2 32.9 35.3 35.8 36.5 39 38.8
10.1 10.3 10.2 10.1 10.1 10.1 10 10 9.9 9.9 8.9 8.3 8 8.6 9.3 10.7 32.1 84.7 104.2 96.1 82.1 70.3 58.4 44.3 37 33.1 32.7 33.8 23.9 14.6 12.7 12 11.7 11.4 11 10.8 10.6 10.5 10.4 10.3 10.3 10.4 10.2 10 9.7 9.4 9.3 8.8 7.7 6.9 9.7 9.8 9.8 9.7 9.6 9.5 9.4 9.3 9.2 9.1 9.1 9.2 9.3 9.4 9.5 9.7 9.8 9.9 10 10.1 10.2 10 9.7 9.5 9.4 9.2 9.1 9 8.9 8.9 8.8 8.4 8 7.7 7.7 7.8 7.6 7.8 7.7 7.3 7.1 6.8 6.8 5.6 7.3 7.7 8.2 8.6 8.8 9 9.8 10.6 11.7 12.8 12.7 12.6 12.5 12.4 12.5 12.3 12.6 12.6 12.7 14.8 18.9 19.7 23 30.3 31.3 32.6 33.4 33.3 32.9 33.1 33.6 34.5 36.2 37.8 44.8 48.4 48.5 48 47 45 44.7 42.7 42.7 43.5 44.3 45.1 46.7 46.2 45.1 44.6 44.1 43.6 43.3 43.6 42.8 41.8 41.5 40.6 39.7 39.6 40.7 40.8 41.3 40.8 40.8 40 38.3 35 32 29.9 27 25.2 23.6 21.4 20.1 19 17.3 12.8 18.4 21 22.4 21.2 22.3 21.2 22 23.2 24.8 26.2 27.6 28.6 28.8 29.1 30.9 32 32 32.9 33.7 35.7 33.4 34 34.1 36.1 37.3 38.1 38.8 38.7
10.1 9.7 9.3 9.3 9.2 9.2 9.1 9.1 9.1 8.5 7.5 7 7.3 7.8 8.3 8.9 18.7 69.8 100.1 95.6 84.1 73 63.2 50.8 40.1 32.5 30.7 28.4 22.7 13.7 12.2 11.1 10.8 10.7 10.7 10.6 10.5 10.5 10.4 10.3 9.9 10 9.7 9.5 9.3 9.3 9.7 8.4 8.3 6.9 8.4 8.6 8.7 8.9 9 9.1 9.2 9.1 9 8.9 8.9 8.9 9 9.2 9.4 9.5 9.6 9.8 9.9 10 10.1 9.9 9.7 9.4 9.2 9.2 9.1 9.1 9 9 9 8.6 8.3 8 7.8 7.7 7.6 7.7 7.3 6.9 6.7 6.5 6.6 4.2 6.9 7.2 7.7 8.3 8.6 9.4 10.6 11.6 12.4 12.6 12.5 12.4 12.3 12.1 12.1 12.3 12.4 12.6 12.9 15 21.8 23.1 24.1 25.6 27.6 30.8 33.1 33 33 33.3 33.8 34.3 36 37.9 43.7 49.7 50.8 50.4 48.5 47.9 48.9 45.9 43.9 43.6 44.6 46.5 48.1 47.8 47.6 47.4 46.8 46.2 46 45.1 44.3 45 43.8 41.7 41.3 40.9 40.4 39.8 39.6 39.7 39.7 39.2 39.4 39.5 37.2 35.4 32.9 30.8 28.1 26.2 23.8 21.6 18.8 15.2 15.1 16.7 20.4 23.1 22.3 22.5 22.8 24.5 26.1 27.5 28.9 30.3 30.7 31.8 32.2 32.5 34.2 35.9 36.9 36.4 36.9 37.4 38.6 39.9 40.8 38.9 42 42.4
9.5 9.1 8.7 8.4 8.3 8.3 8.3 8.2 8 7 6.8 7 7.3 7.9 8.4 8.8 16.3 39.7 94.9 97.8 87.1 76 67.8 58.7 47.9 35.4 29.4 23.9 17.5 12.1 11.4 10.9 10.9 10.8 10.7 10.7 10.6 10.6 10.5 10 9.3 9.5 9.5 9.5 9.5 9.8 9.7 8.2 7.2 6.4 7.2 7.4 7.5 7.6 7.8 7.9 8 8.2 8.3 8.4 8.6 8.6 8.8 9 9.2 9.3 9.5 9.6 9.7 9.9 10 9.8 9.6 9.3 9.2 9.2 9.2 9.2 9.2 9.1 9.1 8.9 8.6 8.4 8.1 7.9 7.6 7.3 6.9 6.5 6.2 6.3 6.3 4.2 6.5 6.9 7.4 7.8 8.3 9.4 10.7 11.8 12.1 12.3 12.3 12.2 12.1 11.8 11.6 11.8 11.7 12.6 16 16.2 18.6 20 22.9 25.7 27.9 30.3 32.6 32.6 32.7 33.2 33.7 34.1 35.4 37 40.7 49.5 51.7 50.9 51.9 52.4 51.9 49.8 47.6 46.3 46.2 47.1 49.1 49.5 49.6 49.3 49 48.3 47.4 46.5 45.6 45.5 44.4 43.3 42.8 42.4 41.8 40.9 40.5 39.5 39.2 39.1 39.4 40 39.4 37.4 34.9 34.4 32.5 30.7 28.9 26.5 20.7 19.3 22.8 21.7 18.6 23.3 22.9 23.7 24 25.8 27.4 28.8 30.2 31.5 32.2 32.5 31.7 32.8 35.6 35.6 37.5 39.5 40.7 41.9 43.3 44.6 43.9 44.9 46.7 47
9.1 8.5 8.2 7.8 7.5 7.4 7.4 7.4 6.6 6.6 6.9 7 7.4 7.9 7.9 7.8 8.6 19.5 50 84.1 80.7 77.2 70.7 63.4 54.3 39.9 29.5 23.3 15.1 12.3 11.2 10.3 11 10.9 10.8 10.8 10.7 10.7 10.1 9.5 9.2 9.4 9.7 9.7 9.9 8.8 8.4 8.1 7.8 7 6.2 6.4 6.6 6.9 7.1 7.3 7.5 7.7 7.9 8.1 8.3 8.7 8.6 8.8 9 9.1 9.3 9.4 9.6 9.7 9.8 9.7 9.5 9.3 9.1 9.1 9.1 9.1 9.1 9.1 9.1 9 8.9 8.7 8.4 8.1 7.9 7.7 6.5 6.1 4.2 4.2 4.2 6.3 6.5 6.8 7.2 7.6 8.1 9.2 10.8 11.5 11.8 11.9 12.1 12 11.9 11.6 11.3 13.7 12.5 13.2 15.1 17.4 19.6 21.8 23.8 25.7 27.9 30.1 32.3 32.3 32.5 32.9 33.3 33.7 34.5 36.3 39.1 44.3 47.9 52 55 55.5 55.3 54.7 52.1 50.8 48.6 49.3 50.6 51.1 51.6 51 50.4 49.4 48.6 47.8 46.9 46.1 45.6 44.9 44.5 43.7 42.5 42.3 42 41.1 40.1 39.2 38.8 39.6 39 35.6 36.1 35.6 34.4 32.7 30.5 27.9 21.8 26.7 27.3 26.3 24.8 23.9 25 24.5 24.7 27 28.8 30.2 30.9 31.6 32.3 32.5 32.8 33.4 34.7 36.6 38.4 40.3 42.2 43.7 45.3 46.7 42.1 48.9 50.5 50.6
9 8.1 7.4 7.2 6.8 6.6 6.5 6.1 6.3 6.8 6.9 7 7.5 7.2 6.3 6.9 7.7 8.4 18.3 40 67.2 72.1 67.9 60 52 41.1 29.4 25.6 17.5 12.1 11.1 9.7 10.5 11 10.9 10.9 10.8 10.2 9.9 9.6 9.3 9.3 9.6 9.8 9.5 9.1 8.8 8.5 8.2 7.7 7 6.4 6.6 6.8 7 7.2 7.4 7.6 7.8 8.1 8.5 8.9 8.7 8.6 8.8 8.9 9.1 9.2 9.4 9.5 9.7 9.6 9.4 9.2 9.1 9.1 9.1 9.1 9.1 9.1 9 8.8 8.9 8.9 8.6 8.4 8.2 8.1 7.7 4.2 7.7 7.1 7.4 7.3 7 7.4 7.6 7.8 7.9 9.2 10.8 11.3 11.5 11.8 11.8 11.8 13.2 12.5 13.1 13.3 13.6 14.5 16.6 18.6 20.4 22.4 24.4 25.9 27.8 30.1 32.4 32.6 32 32.3 32.7 33.2 33.7 36.1 37.2 42.5 49.7 54.6 56.6 58.4 58.2 57.8 56.5 53.7 51.6 52.8 52.9 53.3 53.4 52.4 51.8 50.6 49.8 48.9 47.9 47 47.1 46.5 46.2 45.7 44.8 44.3 44 43 42 41 38.9 38.2 38.1 36.3 35.3 32.7 32.5 30 29 25.5 30.3 30.7 29.9 28.5 26.6 25.2 26.2 26.4 28.4 29.9 30.1 30.5 31.1 31.7 31.7 32.3 32.6 33.3 34.3 36.1 37.7 39.6 41.2 42.8 44.5 44.9 46.6 49 50.9 51.4
9.3 9 8.2 7.3 6.5 5.8 5.6 6 6.8 6.9 7 7.1 6.4 5.6 5.2 6 6.6 7.4 8.3 16.6 30.2 59.1 59.5 49.1 46.1 39.1 27.5 19.8 14.4 11.6 10.9 9.5 9.9 10.6 11 11 10.5 10.2 9.9 9.6 9.4 9.3 9.6 9.3 9.2 9.2 9.1 8.8 8.5 6.3 7.7 7.4 6.5 6.7 6.9 7.1 7.4 7.6 7.8 8.2 8.6 9 8.9 8.7 8.6 8.7 8.9 8.9 9 9.1 9.1 9.4 9.3 9.1 9.1 9 9 9 9 9 8.9 8.6 8.6 8.8 8.9 8.6 8.5 8.2 8.1 4.9 7.3 6.9 7.9 8.1 7.5 8.1 8.3 8.5 8.2 8.5 9.7 11.7 12.3 11.7 13.5 13 12.8 13.6 14.2 14.8 15.4 15.9 17.7 19.5 21.3 23.1 24.9 26.4 27.9 30 32.4 32.8 31.4 31.7 32.3 32.8 33.3 34.2 36 41.8 50.6 56.9 59.2 60.9 60.9 60.7 58.8 56.2 54.7 55.2 55.2 55.4 55.3 54.3 53.1 51.7 50.8 49.8 48.7 48 48.5 48 47.2 46.7 46.9 46.5 46.1 45.1 44.5 42.9 41.2 39.4 37.1 35.7 33.1 30.6 29.1 29.7 29.9 31 31.1 31.1 31.1 29.8 27.4 25.9 26.5 28.9 30.3 31.1 30.2 30.5 30.3 30.4 30.9 31.6 32.4 33.2 34.1 35.6 37.1 38.6 40 42 43.7 40.1 47.7 49.7 50.6 53
8.9 8.7 8.4 8 7.2 6.4 4.6 6.2 6.2 5.3 -1 -1 -1 -1 4.2 4.8 5.5 6.4 7.4 8.3 12.4 23.1 51.5 48 43.1 35.3 27 19 12.3 11.3 10.5 9.3 9.9 10.6 11 10.8 10.5 10.2 9.9 9.6 9.5 9.4 9.4 9 8.7 8.7 8.6 8.6 8.6 7.4 7.1 8.9 7.7 6.7 6.9 7.1 7.3 7.5 7.8 8.4 8.8 9.2 8.8 8.4 8.6 8.1 8.2 8.3 8.3 8.4 8.4 8.7 9.2 9.1 9.1 9 9 9 9 8.9 8.8 8.4 8.2 9 9 8.5 8.1 7.6 7.7 7.8 4.9 4.3 4.2 7.8 8.3 8.2 9.1 9.2 8.2 8.4 13.2 14.4 12.3 12.5 13.5 14.2 13.3 14 14.6 15.3 15.9 16.9 18.4 20.2 22 23.8 25.2 26.7 28.2 30.3 32.5 32.5 31.5 31.9 32.3 32.7 33.2 34.1 35.7 40.7 53.1 59.5 61.8 62.8 63.5 63.2 61.4 59.6 57.7 57.6 57.6 57.6 57.2 56 54.6 52.9 51.7 50.6 49.5 49 48.8 48.6 47.7 47.6 47.8 48.1 48.6 49 47.8 46 44.7 43.6 40.4 36.4 34.5 31.9 31.7 32.8 31.8 30.9 30.1 29.8 29.5 27.4 27 26.7 25.1 25.8 27.3 27.6 26 26.7 28.1 29 30.3 31.4 32.1 33 34.1 35.6 37.6 39.2 41.3 42.3 42.7 41.5 47.2 49.4 49.6 51.5
8.1 8 7.8 7.7 7.6 5.7 -1 -1 -1 -1 -1 -1 -1 -1 -1 -1 4.5 5.3 6.3 8.1 9.3 9.6 17.1 35.6 44.4 34.5 26.9 20.1 12.8 10.6 10.8 10.5 11 10.4 9.8 9.6 10.1 10 9.7 9.4 9.4 9.3 9 8.6 8.2 8.2 8.1 8.1 8.3 9 5.5 8.9 8.2 8.1 6.9 7 7.2 7.4 8.1 8.5 8.8 8.8 8.3 8.5 8.7 8.6 7.5 7.6 7.7 7.7 7.8 8 8.4 9.1 9 9 9 8.9 8.9 7.9 7.8 7.7 7.5 8.2 7.9 7.6 7.5 7.3 7.3 7.4 6.8 5.5 5.5 7.4 8 8.4 9.3 9.1 10.8 14.7 14.8 11.8 13.2 13.2 14 14.4 13.9 14.4 14.9 15.7 16.5 18 19.2 20.9 22.7 24.3 25.7 27 28.2 30.6 32.4 32 31.6 32 32.3 32.7 33.2 34 35.2 38.8 49.1 58.2 61.9 64.3 65.7 65.1 63.2 61.5 59.9 58.8 59.1 59.4 58.8 57.5 55.9 54.1 52.7 51.6 51 51.1 50.7 49.2 48.6 49.4 50.3 50.5 51.4 53.3 52.6 51.4 49.6 47.8 43.6 39.3 36.6 34.5 34.5 33.6 33.1 31.8 30.4 29.5 28.6 28.3 30.1 29.9 29.6 29.4 29.1 29.4 29.9 30.9 31.5 31.5 30.6 30.3 30.9 32.5 34.1 36 38.6 40.1 43.5 43.3 42.2 43 45.3 46.6 47.9 49.4
7.9 7.9 7.8 7.7 5.4 -1 -1 -1 3.3 3.3 3.4 3.3 2.7 -1 -1 -1 -1 4.3 6 7.9 8.8 8.8 7.5 11 21.2 32.2 29.3 22 12.4 10.1 11.1 10.5 9.8 9.2 8.5 8.2 8.6 9 9.4 9.2 9.2 8.8 8.5 8.3 7.9 7.7 7.6 7.6 8.7 8.8 4.5 7.5 7.6 7.5 7.4 7.2 7.1 7.7 8.3 8.5 8.5 8.4 8.5 8.6 8.7 8.9 8.9 8.9 8.8 8.8 8.8 8.9 9 8.9 9 9.1 8.9 8.9 7.5 7.1 7.9 8.4 8.4 8.4 8.4 8.3 8.2 8 8.2 7.6 7.4 6.9 7.2 6.9 9.8 8.9 8.9 9.9 10.9 10.9 11.5 11.7 12.5 13.6 14.2 14.5 14.6 14.8 15.2 16.2 17.4 18.6 20 21.6 23.4 24.8 26.2 27.3 28.5 30.6 31.5 31.3 31.3 31.9 32.3 32.7 33.3 33.9 35.3 37.8 45.6 54.9 61 64.7 66.2 65.9 64.5 62.9 61.8 60.7 60.2 60.6 60.1 58.6 57.1 55.4 54.2 53.4 53.1 53.5 52.9 51.5 50.4 50.9 51.8 52.7 54.2 56.6 57.6 56.7 55.1 53.6 50.7 46.6 41.9 38.3 36.5 35.1 34.5 33.3 32.2 32.1 30.9 30.6 31.9 33.3 33.6 33.7 33.7 35.4 35.3 34 32.7 32.6 32.1 31.7 32.2 33.5 37.1 40.4 43.4 45.2 46.2 45.5 41 42.5 43.7 44.8 45.7 47.2
7.6 7.7 7.8 7.3 -1 -1 -1 4.1 4.3 4.5 4.4 3.7 3.2 3.2 -1 -1 -1 -1 5.8 7.7 8.1 7.1 6.6 7.6 8.8 13.7 18.9 20 10.6 9.8 9.6 9.1 8.5 7.9 7.3 6.7 7.1 7.5 7.9 8.2 8.4 7.6 7.1 7.5 7.4 7.2 7.1 8.2 7.5 6.8 6.7 6.3 6.3 6.4 6.8 6.7 6.8 7.2 7.4 7.7 8 8.4 8.5 8.7 8.1 7.2 6.9 6 7.4 8.5 8.7 8.6 8.8 9 8.5 7 7 8.9 8.8 8.5 7.8 7.6 7.9 8.2 8 7.5 7.6 8.3 8.2 7.4 7.5 7.6 5.8 6.4 6.5 8 8 8.8 8.9 7.6 9.8 13.2 13.6 13.7 15 15.6 15.8 16.1 16.4 17.2 18 19.1 20.5 22.1 24.5 26.1 28 28.6 28.9 30.9 31.3 31 31 31.6 32.2 32.8 33.3 33.8 35.7 37.9 43 50.8 57.3 61.7 63.7 64.2 63.2 62.1 61 60 59.8 59.8 59.4 59.1 57.6 56.4 55.8 55.8 55.4 55.1 55.5 54.2 53.3 52.6 53.5 55.5 57.7 59.5 60.3 60 58.6 57.2 56.5 53.3 49.4 45.6 41.5 38.6 36.5 36.3 34.8 34.4 33.1 32.9 33 34.4 35.6 36.7 37.5 37.7 37.1 36.2 35.1 34.4 32.8 32.4 34 37 41.1 45 46 46.1 46.2 45.1 43.8 43.2 42.9 43.5 45.5 45.1
8 7.7 7.5 -1 -1 -1 4.5 5.2 5.5 5.5 4.6 3.9 3.2 3.2 4.1 4.8 -1 -1 5.2 7.5 7 6.5 6 6.5 8.3 9.1 9.6 10.2 9.3 8.5 8.1 7.5 7 6.5 5.9 5.4 5.5 5.7 5.9 6.1 7.7 6.5 6.4 6.5 6.7 6.6 6.4 6.6 6.4 6.3 6 4.7 4.6 4.6 4.7 5.2 5.7 6.1 7.3 7.9 8.3 8.4 8.6 8.9 8.7 7.5 6.5 6.5 8.3 9 8.9 8.5 8.8 9.1 9.1 8.2 7.2 8.1 8.5 8 7.8 7.5 7.9 8.2 8.4 8 7.2 8.3 8.2 7.7 7.9 8 7 6.5 7.5 8.3 7.3 8.4 8.5 8.8 9.1 9.2 12 13.5 15.4 16.1 16.8 17.7 18.1 18.7 19.3 19.9 20.9 22.6 25.4 29.3 30.8 30.9 31.1 32.2 31.1 31.2 31.4 31.7 31.9 32.1 33 34.2 35.8 37.8 41.5 46.8 50.6 55.8 59.2 60.7 62.1 61.2 60.1 59.3 59.1 58.8 58.4 58.1 57.7 57.2 56.9 57.3 57.6 57.9 57.5 56.8 56.2 54.4 53.4 53.9 55.7 57.5 59.3 61.1 61.1 61.5 61 59.5 56.9 53 49.6 47.8 43.9 42.2 39.1 37.3 35.5 35.1 34.8 35.5 36.4 36.9 38.3 38 39.1 36.8 34.7 33.3 31.5 33.3 37.1 40.8 43.5 45.9 47 47 45.6 42 43.9 43.7 43.6 43.2 46.1 45.8
7.9 7.3 4.7 -1 -1 5.3 5.6 6.1 6.6 5.9 4.8 4.1 3.2 3.2 4.2 5.3 -1 -1 5 6.7 6.1 5.7 5.2 6.1 8 8.8 8.3 7.9 8.6 7.1 6.6 6 5.5 5.4 5.4 5.4 5.8 6 5.8 5.6 5.5 5.5 6.6 5.7 5.8 5.9 5.9 5.9 5.7 5.6 5.2 3.2 5.3 4.9 4.5 5 5.4 5.6 6.9 8.2 8.4 8.5 8.7 8.9 9.2 7.9 6.4 7.5 9 8.9 8.8 8.7 8.8 8.9 9.1 8.7 7.8 7.9 8.3 8.1 7.9 7.6 7.8 8.1 8.3 8.5 8 6.8 8.2 8.2 8.3 8.3 7.7 6.2 7.6 8.6 9.3 8.3 8.1 8.4 8.8 10.1 9.4 12.7 14.7 16.7 17.4 18.6 19.2 19.7 20.5 20.6 21.9 23.3 26.4 31.2 32.7 32.4 32.4 32 31.4 31.6 32.1 32.5 32.8 32.9 33.8 35.2 36.2 38 40.3 43.1 46.1 49.6 53.8 57.1 59 59.7 59.4 58.7 58 57.7 57.4 57.2 57 56.6 56.6 56.9 57.3 58.1 59.8 59.5 58.2 56.7 55.6 54.9 54.1 55.3 56.5 58.3 59.4 59.6 60.1 60 59 57.8 56.1 52.9 50.2 48.6 46.9 44.8 42.6 41 39.5 38.9 38.3 38.3 38.6 37 36.2 35 33.3 32.4 34.8 38.3 42.7 45.6 42.6 39.8 42.2 42.1 40.9 40.3 42.9 45.1 46.4 48.3 49.9 48.6
7 6.3 -1 -1 4.9 6.7 7.3 7.6 7.2 6.1 5.1 4.3 3.4 3.3 4.4 5.1 -1 -1 4.7 5.6 5.3 4.8 5.4 6.7 8.2 7.7 7.1 6.5 6 5.6 5.5 5.5 5.4 5.4 5.4 5.6 6.1 6.5 6.9 6.5 4.7 5.2 7.4 5.2 5.3 5.4 5.4 5.5 5.5 5.1 4.9 3.9 4.2 4.7 4.6 4.7 5.1 5.2 5.8 7.3 8 8.4 8.6 8.9 8.3 6.6 7 8.5 8.9 8.8 8.8 8.7 8.7 8.8 8.9 8.9 8.3 7.9 8.3 8.2 8 7.7 7.8 8.1 8.3 8.5 8.5 7.1 8.4 8.5 8.6 8.3 7.7 5.9 7.2 7.7 8.1 7.8 9.3 8 9 10.5 10.6 12.1 13.6 15.1 16.9 18.8 19.9 20.5 20.6 21.1 22.4 24 28.2 33.6 32.8 32.2 31.8 32.7 32 32 32.8 33.2 33.6 33.7 35 36.6 38.1 41.1 42.8 43.6 44.3 45.7 47.6 52.3 57.5 59.7 61.1 60.5 60.5 59.2 56.6 55.4 54.3 54.1 54 54.9 55.5 56 56.5 57.2 57.1 56.7 55.7 56.2 55.8 55.1 56.1 57 58.4 59.1 59.6 60 60.2 59.2 57.8 56.1 54.5 52.3 50.6 49.3 47.9 46.8 45.7 45.3 44.4 43.1 41.3 39.6 36.9 35 33.4 34.8 40.2 44.3 47.2 45.6 44.9 43.1 41.9 40.1 38.8 42.7 47 51.1 51.5 49.1 47.6 45.7
7.3 5.5 -1 -1 5.5 7.5 8.3 8.3 7.6 6.3 5.3 4.5 3.6 3.5 -1 -1 -1 -1 4.1 3.8 4.1 4.7 6 7.4 8.1 7.5 7 6.5 5.9 5.5 5.5 5.5 5.5 5.5 5.4 5.8 6.3 6.7 7.2 6.7 4.8 4.7 8.5 4.7 4.8 4.9 5 5.1 5.2 4.5 4.4 4.5 2.6 3.3 2.8 5.1 5 5.2 5.7 6.3 7.3 7.8 8.2 8.2 7.4 6.5 6.7 8.9 8.6 8.5 8.5 8.4 8.4 8.6 8.8 8.9 8.4 7.8 7.6 7.8 8 7.8 7.8 8 8.1 8 7.9 6.9 8.6 8.8 8.7 8.7 8.6 6.3 5.7 6.3 6.8 6.9 7.7 8.5 8.7 9.3 9.8 10.5 13.1 13.6 15.1 18.5 19.6 19.9 20.3 21 22.2 24 26.5 30.4 31.7 32 31.5 31.8 32.9 33 33.7 34.2 34.6 35.6 36.9 38.9 41.3 44.2 45.8 46.1 46.6 45.9 44.1 47.7 55.5 59.9 61.2 61.8 62.4 59.2 56 54.6 53.2 51.7 48.3 50.1 51 51.1 51.7 52.9 52.9 52.7 52.9 52.8 52.8 52.8 52.6 54.4 56.3 58.7 59.9 60.3 60.1 59.3 59 57.5 55.8 55.1 53.5 52.4 52.4 50.9 50.2 50.8 50.1 48.4 45.9 43 39.6 35.5 32.2 37.6 42.4 47.5 49.3 47 47.5 45.5 43 40.3 40.2 41.9 43.9 45 43.5 42.6 42.8 44
6.2 4.5 -1 -1 6 8.5 9 8.9 8 6.8 5.5 4.5 -1 -1 -1 -1 -1 5.8 5.4 4.8 4.2 4.9 6.3 7.6 8.2 7.7 7.2 6.6 5.9 5.5 5.5 5.5 5.5 5.5 5.6 6 6.5 6.9 7.3 6.2 4.4 4.3 9.3 4.2 4.2 4.4 4.6 4.7 4.7 4.1 3.9 4 1.6 2.2 1.1 5.1 5 5.4 6.4 6.5 6.5 6.4 6.5 7.2 6.2 5.7 7.5 8.6 8.3 8.2 8.2 8.1 8.1 8.3 8.5 8.7 8.3 7.5 6.9 6.9 7.1 7.4 7.6 7.5 7.4 7.5 7.2 7.4 8.7 8.7 8.7 8.7 8.8 8.9 7.8 6.5 5.2 7.2 9 8.2 8.4 9.2 9.9 10.5 13 13.1 14 17.5 19.1 19.3 19.7 20.6 21.6 23 24.9 27.4 30.1 30.9 31.3 30.9 32.6 34.6 35.7 36.4 37.4 39.1 40.6 41.5 42.1 43.9 45.3 46.6 46.9 46.8 46.4 42.6 47.7 52 53.1 53.7 54.4 54.8 52.2 50.2 47.9 47.9 47.9 47.9 47.9 47.2 46.6 46.8 46.7 46.5 47.5 47.9 48.5 49.2 49.9 51.8 53.9 55.8 57.7 58 58.3 57.5 56.6 55.5 54.7 54.9 54.1 52.7 52.9 54.3 55.2 56.3 55.4 53.4 50.2 46 43.1 39.8 33.5 36.9 43.7 48.1 48.4 48.2 47.3 45.9 43.3 40.2 38.5 39.3 39.8 39.5 39.9 40.5 40 40.3
5.5 4.3 -1 -1 6.8 9.5 9.6 9.6 8.5 6.6 -1 -1 -1 -1 -1 5.6 5.7 5.3 5.2 4.8 4.2 5 6.4 7.8 8.4 7.9 7.2 6.5 5.8 5.4 5.6 5.6 5.6 5.5 5.8 6.3 6.7 7.1 7.4 7.2 5.5 4.4 10.1 4.2 3.8 4 4.1 4.2 4.6 3.9 3.8 5 4.6 6.3 -1 5.5 5.1 5.2 5.7 6.8 8.7 10 9.4 10.3 10.1 6.8 7.1 7.5 7.6 7.5 7.5 7.5 7.3 7.1 7 7 6.9 6.8 6.3 6.3 6.3 6.5 6.7 6.6 6.7 6.8 6.9 7.3 8 8.1 8 7.9 8.1 8.3 8.6 7.9 6.4 6.8 9.5 9.3 8.3 9.2 10 10.7 12.1 12.5 13.7 17 19.6 19.4 19.5 20.1 21.1 22 23.2 24.8 27.6 29 30.2 30.2 32.7 35 36.8 40.4 45 46.5 44.6 44.9 42.7 42.6 43.6 43.7 44 45.2 44.9 43.1 42.6 42.3 45.3 46.3 46.6 46.3 44.1 44.7 39.8 40.2 36.9 37 45.8 45.1 42.4 45.5 47.7 49.5 50.7 50.9 52.1 51.6 50.5 49.6 49.8 49.9 51.4 52 52.5 52.1 52.2 51.4 52.2 52.2 52.8 53.1 54.2 57.7 58.6 58.6 57.5 55 52.7 49.6 47.2 45.1 39.7 33.6 40.3 44.3 45.7 44.3 44.7 44.3 41.6 38.1 38.5 38.1 38.5 38.3 39.1 39.8 39 39.2
7.9 4.6 -1 -1 -1 7.1 7.9 9.6 7.1 -1 -1 -1 5.4 5.4 5.9 6.4 6.2 5.6 4.9 4.6 4.1 5.1 6.5 7.9 8.6 7.9 7.2 6.5 5.8 5.4 5.6 5.6 5.6 5.6 6 6.5 6.9 7 7.1 7.1 6.3 5.4 9.4 3.4 3.3 3.5 3.5 3.5 3.4 2.9 5.8 7.6 6.9 5.1 -1 5.9 6.8 6.6 7.1 9.5 10.5 10.7 11.8 12.6 11.7 9.6 6.3 6.9 7.6 7.8 7.8 7.8 7.7 7.7 7.5 7.5 7.4 7.2 7 6.9 6.9 7 7 6.8 7 7.1 7.2 7.2 7.3 7.4 7.2 7 7.2 7.8 8 7.9 7.3 2.8 8.2 8.8 7.6 9.5 10.5 11.5 12.1 12.6 13 15.8 18.8 19.4 19.3 19.8 20.6 22 23.6 24.2 25.7 27.1 28.3 29.6 31.4 34.8 37.5 44 50.5 50.2 49.1 49.3 48.9 46.3 45.4 45 43.9 43.1 42.5 40.4 44.5 44 42.3 40.5 39.6 39.6 39.4 39.4 37.7 36.2 36.3 35.9 34.7 34.7 38.9 46.6 49.2 51.6 51.4 51.9 53.8 54.6 53 50.6 48.4 46.9 45.4 45.8 46.2 46.3 46.3 45.8 48 48.5 50 51.5 54.5 57.3 59.2 59.9 60.5 59.5 56.8 54.1 52 49.3 45.7 41.2 34.1 37.1 38.9 37.7 38 38.1 37.3 38.9 36.7 36.9 37.2 37.3 38.1 39.1 38.2 39.2
6.1 5.7 4.9 -1 -1 -1 6.9 8.6 6.6 -1 -1 5.1 6.3 6.6 7.1 6.9 6.7 6.3 5.6 4.9 4.1 5.1 6.4 7.7 8 7.5 7.2 6.5 5.8 5.3 5.6 5.6 5.6 5.8 6.3 6.7 6.7 6.8 6.8 6.9 6.4 5.9 9 3.2 2.9 3.1 2.8 2.8 2.9 3.9 6.6 -1 -1 -1 -1 -1 -1 6.4 6.9 8.9 10.2 11.5 12 12.1 10.8 15.1 6.1 6.8 7.5 8.1 8.1 8.1 8.1 8.1 8 8 7.9 7.6 7.6 7.6 7.5 7.6 7.5 7.5 7.7 7.4 7.1 7.2 7.2 7 6.5 6.2 6.7 7.4 7.4 7.7 7.7 3.9 8.6 9.3 8.8 9.4 10.5 11.5 12.2 12.2 13 14.4 18.4 19.3 19.1 19.9 20.4 21.7 23.1 23.8 25 25.9 27 28.1 29 32.5 36.7 42 51.9 53.4 53.4 52.1 50.3 49.1 48 46.4 44.3 42.4 40.8 40.9 44.8 45.4 44.9 43.4 42.1 40 38 37.8 37.3 36.2 36.2 35.6 34.7 34.4 37.4 39.2 42.4 44.2 46.4 49.5 50.3 51 49.7 48.5 46.1 44.8 43.1 41.8 41.4 40.8 40.4 40.1 42.2 44.4 46.5 48.4 52 56.4 60.3 62.8 64.4 65 64.8 62.1 58.6 55.3 52.5 49.5 47.4 44.2 42.2 40.8 41.2 41.6 40.4 39.3 39.4 39.3 38.9 38.9 37.4 37.3 38.1 39.2
6 6.2 6 4.9 -1 -1 -1 7.5 -1 -1 -1 6.1 6.7 7.3 7.5 7.3 7.1 6.9 6.3 5.6 4.8 4.2 5.5 6.8 7.1 6.8 6.4 6.3 5.7 5.2 5.5 5.7 5.7 6 6.4 6.4 6.5 6.5 6.6 6.6 6.2 4.4 7.9 3.1 3.2 3 2.7 2.8 8 5.9 -1 -1 -1 -1 -1 -1 -1 -1 -1 8.4 7.8 7.5 11.6 11.1 12.9 14.1 6.3 7 7.6 8.1 8.4 8.4 8.4 8.4 8.4 8.4 8.3 8.3 8.2 8.2 8.1 8.2 8.1 8.2 7.9 7.5 7.2 7.3 7.2 7 6.5 6.2 6.6 6.9 7.4 7.8 8.1 5.8 7.6 7.9 8.3 9 10.1 11.2 12.2 12.1 12.3 13.2 15.4 17.3 18.8 19.7 20.4 20.9 21.9 23.2 24.2 25 25.8 26.5 27.2 28.5 33.3 39.8 47.9 55.3 56.5 52.3 50 49.4 48 46 42 40.2 40 43.7 45.6 47.1 47.5 46.3 44.6 42.2 39.5 37 35.4 36.1 36.2 35.5 34.5 33.3 34 35.6 40.3 42.3 44.7 46.4 46.8 46.5 46.7 45.3 44.2 43 41.4 40 38.6 37.3 36 35.7 36.5 37.6 39.6 41.9 45.9 51.3 54.6 58.6 62.3 67.2 68.6 69.3 67.9 64.8 60.8 57.7 54.7 50.8 49.7 48.9 46.6 44.8 40 41.2 41.6 41.7 41.4 41.4 40 38.5 40.1 37.1
5.8 5.9 6 6.1 5.1 -1 -1 9.5 -1 -1 4.9 5.7 6.5 7.2 7.4 7.5 7.5 7.3 7 6.3 5.5 4.7 4.6 5.9 6.2 6 5.6 5.4 5.2 5.2 5.4 5.7 5.8 6 6.1 6.1 6.2 6.3 6.3 5.9 5.3 3.3 6.5 2.8 2.8 2.6 2.6 2.5 5.6 -1 -1 -1 -1 -1 -1 -1 -1 -1 -1 6.8 6.7 7.1 8.5 6.6 11.1 11.4 6.2 7.2 7.7 8.2 8.3 8.3 8.3 8.3 8.3 8.3 8.3 8.5 8.7 8.8 8.8 8.7 8.7 8.4 8 7.7 7.3 7.3 7.2 7 6.6 6.5 7 7.8 7.8 7.2 7.7 5.5 5.3 6.7 7.3 8.5 9.6 10.5 11.3 11.8 12 12 15 18 19.4 19.6 20.3 20.8 20.9 22 22.9 23.9 25.1 25.3 25.6 26.5 28.5 33.8 41.3 47.9 54.2 52 49.8 48.5 47.2 46 41.1 38.3 41 45 47.1 48.7 48.5 48 46.6 44 41.2 38.1 35.2 33.5 32.7 32.4 32.4 31.7 36.1 41.2 45.2 49.2 51.6 52.6 52.8 50.9 49.9 49.2 46.5 43.6 40.9 38.8 37.2 35.7 33.9 33.3 34.1 34.8 36.3 37.7 38.9 42.3 47.1 49.7 52.9 57.8 62.7 66.1 68 65.9 63.4 61 58.3 55.3 53.3 51.5 49.4 47.3 38.9 42.7 42.7 43.2 42.7 42.7 40.9 40.1 43.7 42.3
5.6 5.7 5.7 5.8 5.9 -1 -1 8.3 -1 -1 4.2 5.1 6.2 7 7.1 7.2 7.3 7.5 7.5 7 6.2 5.4 4.6 5 5.2 5.1 -1 -1 -1 -1 -1 -1 5.7 5.8 5.9 5.9 6 6 5.5 5.1 4.4 2.8 4.9 2.6 2.4 2.2 2.1 1.7 -1 -1 -1 -1 -0.4 0.3 -0.2 -1 -1 -1 -1 -1 6.8 7.2 8 8.6 10.7 6.8 6 7.3 7.8 8 8.1 8.2 8.1 8.1 8.1 8.1 8.3 8.5 8.7 8.8 9 9 8.9 8.5 8.2 7.9 7.5 7.3 7.3 7 6.8 6.8 7.4 7.7 7.6 7.5 6.7 6.8 2.8 5.9 6.8 7.9 8.8 9.9 10.3 10.8 11.6 12.3 14.8 17.3 18.9 19.4 20.1 20 20.1 20.8 21.8 22.8 24.2 25.1 25.3 24.6 26 29.6 36 40.4 47.1 49.6 49.4 48.8 47.7 46.8 41.5 37.9 37.6 44.4 48.4 50.2 49.5 48.7 47.1 44.9 41.7 38.6 34.9 30.9 31.1 31.8 30.7 34.1 38.5 44.7 50.9 55.2 57.4 59.5 58.2 56 55.2 51.8 50.1 48 44.4 41.3 38.4 34.5 32.9 31.8 31.8 32 33.6 34.9 36.1 37.3 39.2 40.8 43.4 50.5 53.5 57.7 62.4 63.5 62.8 60.4 57.6 55.2 53 50 48 45 42.7 43 42.3 41.8 42.1 42.1 42.1 43.4 43.2 45.1
5.3 5.2 5.3 5.4 5.3 -1 -1 9.8 -1 -1 4.2 5.3 6.3 6.7 6.9 7 7.1 7.2 7.5 7.2 6.7 6 5.3 4.5 4 -1 -1 -1 -1 -0.4 -1 -1 -1 -1 5.6 5.7 5.6 5.2 4.9 4.4 3.5 2.4 3.2 2.7 2.3 1.9 1.7 -1 -1 -1 -1 -1 4.5 4.7 4.5 3.3 -1 -1 -1 -1 -1 6.8 4.1 3.9 7.8 5 5.9 7.1 7.8 7.8 7.8 8 8 8 8 8 8.2 8.5 8.7 8.8 9 8.5 8.3 8.3 8.2 8 7.7 7.4 7.3 7.1 6.9 7 7.6 7.5 7.4 7.3 7.2 7.1 5.1 3 7 7.5 8.2 8.9 9.6 10.3 11.2 12 15.1 16.2 17.6 18.7 19.6 20.1 20.2 20.3 20.7 21.8 23.1 24.5 24.5 23.2 23.7 26.3 30.8 34.7 37.9 47 48.4 48.9 48.3 47.6 43.6 39.9 37.5 40.9 45 45.6 46.4 44.3 42.5 42.1 40.3 38 34.4 30.7 28.8 29.6 32.8 37.6 41.5 49.7 56.7 61.2 65.4 66.2 64 62.7 61.8 58.9 56 52.9 50.4 48 45.1 41.3 37.5 34.7 32.7 31.3 30.8 32.1 32.9 34 34.9 35.5 37.2 41.3 47.4 52.2 56.9 60 60 58.5 56.9 54.7 52.4 50.1 45.3 37.5 40.2 39.7 39.6 40.6 41.5 43.4 46.6 47.2 48.4 47.8
5.4 5.2 5 4.9 4.5 -1 -1 5 -1 -1 4.4 5.4 6.3 6.5 6.6 6.7 7 7.3 7.4 6.8 6.6 6.2 5.5 2.7 -1 -1 -1 -1 3.7 3.6 3.4 -1 -1 -1 -1 -1 5 4.6 4.3 3.5 2.6 3.2 3.4 2.9 2.5 2.1 1.6 -1 -1 -1 4.6 5.9 6.4 6.1 5.8 5.4 3.8 -1 -1 -1 -1 -1 3.9 4 3.9 4.9 5.8 7 7.6 7.6 7.6 7.8 7.8 7.8 7.8 8 8.2 8.5 8.7 8.8 8.5 7.9 7.7 7.7 7.6 7.6 7.5 7.5 7.4 7.3 7.2 7.3 7.3 7.3 7.2 7.1 7 6.9 6.8 3.5 5.3 7.2 7.6 8.3 9 9.8 10.4 11.2 14.6 16.3 17.3 18.3 19.3 19.9 20.2 20.3 20.6 20.8 21.9 23.4 24.2 23 22.1 23.6 26.5 30.5 35.2 40.1 42.5 46.1 47.1 47.2 45.1 45.2 41.2 38.1 37.3 38.7 39.1 39.6 38.6 38.7 36.4 34.2 32.1 28.5 27.1 27.7 31.7 39.3 45.7 55.4 63.1 68.3 69.7 70.7 70.4 67.3 67.8 65.4 62 58.5 57.4 54.5 51.8 49.1 45.3 41.7 37.9 34.4 31.8 30 30.1 30.4 31 31.4 31.5 35.2 41.4 45.3 49.5 53.6 57.4 57.2 55.7 53.5 50.8 48.8 45.3 42 39.7 39.6 39 38.5 40.1 45.1 48.9 48.3 48.4 46.8
4.9 4.3 4.3 4.2 -1 -1 6.5 6.7 -1 -1 4.3 5.4 6.1 6.2 6.5 6.9 7.2 7.6 7.1 6.5 6 6.1 5.4 4.1 -1 -1 -1 3.5 3.3 3.3 3.3 3.3 -1 -1 -1 -1 -1 4 3.6 2.7 2.5 6.9 3.6 3.2 2.7 2.2 -1 -1 -1 -1 4.9 5.7 6.5 6.3 6 5.4 5.1 4.1 -1 -1 -1 -1 -1 3.5 4.6 5.5 5.7 6.9 7.6 7.3 7.3 7.5 7.7 7.7 7.7 7.9 8.2 8.5 8.7 8.4 7.9 7.4 7.1 7.1 7 7.1 7.5 7.7 7.7 7.6 7.4 7.2 7.2 7.2 7.1 7.1 7.1 7 7 6.8 2.5 5.4 7.1 7.6 8.3 8.9 9.6 10.2 10.1 12.7 16 18.6 19.6 19.9 20.1 20.4 20.8 21.1 21.3 22.7 24 21.4 21.2 21.9 23.5 26.3 29.1 32.3 35.4 38.2 40.9 42.9 43.5 43.6 43 40.3 39.4 39.8 38.8 38.2 36.5 34.9 33.1 30.1 28.6 27.4 26.2 26.3 30.7 37.4 46.6 53.7 58.2 63.4 68.3 69.5 69.4 69.3 68.5 67.1 64.5 63.1 60.1 58.8 56.1 54.2 50.7 46.8 43 39.2 34.5 32.1 29.6 28.4 28.2 28.7 29.7 31.6 33.8 38.8 43 46.5 48.6 50.2 51.7 51.3 47.8 46.8 42.6 41.9 40.3 39.3 38.7 38.2 38.1 44 48.8 48.8 47.6 42.3
-1 -1 -1 -1 -1 -1 5.8 6.4 -1 -1 -1 5.2 6 6.4 6.7 7.1 7.4 7.4 6.8 6.2 5.6 5.5 6 -1 -1 -1 3.3 3.3 3.3 3.3 3.4 3.6 3.7 3.7 -1 -1 -1 3.4 3.2 3 2.7 7.5 3.3 3.6 3 2.5 -1 -1 -1 5.7 5.1 5.2 6 6.5 6.3 6.1 6 4.2 1.4 -1 -1 -1 -1 3.5 4.3 4.8 4.8 5.5 5.9 7.2 7.1 7.2 7.5 7.5 7.7 7.9 8.2 8.5 8.4 7.9 7.4 6.8 6.6 7 7.4 7.8 8 8.1 8.1 7.9 7.8 7.6 7.5 7.4 7.2 7.3 7.3 7.3 7.2 7.2 4.2 3.9 5.1 6.8 7.5 7.9 8.5 8.9 8.8 8.7 9.8 16.5 19.3 20.1 20.1 20.8 21.3 21.7 21.9 22.2 23.1 21.2 20.2 20.7 21.6 23.2 25.3 28.2 29.9 31.8 34 34.8 35.9 39.4 40.7 41.2 41.1 40.9 41.7 41.6 39.7 37.2 35.3 32.3 29.9 27.2 26.3 25.5 26.8 31.3 40.5 45.4 49.2 52.9 57.4 61.4 64.2 64.7 64.3 63.8 62.2 61 59.2 58 57.5 56.5 54.8 51.8 47.9 43.4 39.1 34.8 30.5 28.5 28.1 27.6 27.1 28.4 29.5 32.2 35.1 39 41.4 43.8 44 43.5 44 42.1 36.3 39.2 38.7 38.3 37.5 36.5 36.7 38.2 39.5 40.3 39.7 39
-1 -1 -1 -1 5 4.1 6 5.5 -1 -1 -1 5.2 6.2 6.6 7 7.3 7.7 7.1 6.5 5.9 5.3 4.9 5.3 -1 -1 -1 3.4 3.5 3.6 3.8 3.9 4 4.2 4.2 3.8 -1 -1 -1 3.3 3.3 3.2 3.8 3.1 3.1 2.5 -1 -1 -1 -1 5.7 5.2 4.8 5.5 6.3 6.4 6.3 6.1 4.6 2.1 -1 -1 -1 -1 -1 2.8 3.6 3.8 4.1 4.4 5.6 6.6 6.9 7.2 7.4 7.6 7.8 8 8.2 8.1 7.7 7.2 6.7 7.3 7.7 8.1 8.4 8.4 8.4 8.4 8.3 8.2 8 7.9 7.8 7.6 7.5 7.4 7.2 7.4 7.4 6.6 2.5 5.1 4.4 7.3 7.8 7.6 7.9 8.1 8.1 8.1 8.3 13.3 16.4 21.5 21.2 22 22.3 22.6 22.9 22.9 21.7 19.6 18.7 20.7 21.4 22.4 23.2 24 26.4 28.6 30.1 32.5 36.6 40.1 43.1 46.9 47.7 47.9 47.6 46.1 42.3 37.9 33.8 30.5 27.8 27.8 27.8 24.7 26.8 32.5 37.8 40.7 43.9 47.3 50.4 53.9 57.5 58.9 59.3 58.2 57.7 58 57.7 57.6 56.9 55.3 53.1 49.8 45.6 41 36 31.4 28.8 27.9 27.4 26.8 27.2 27.9 27.8 28.2 28.1 29.9 32.7 34.6 34.7 36.1 35.4 35 34.8 34.5 35.3 36.1 35.4 36.4 36.8 35.8 35.7 36.4 36.5
4 5.4 6.2 6.8 6.7 5.5 5.9 5.8 4.3 -1 -1 5.1 6.4 6.8 7.2 7.5 7.5 6.8 6.2 5.6 5 4.3 4.6 -1 -1 -1 3.8 4 4.1 4.3 4.4 4.5 4.6 4.7 4.3 4.4 -1 -1 3.3 3.4 3.4 3 2.7 2.4 2.1 -1 -1 -1 4.9 5.8 5.4 5 5.1 6 6 6.1 6.1 4.9 3.1 1.3 -1 -1 -1 -1 3.1 3.4 3.7 4 4.4 4.8 5.9 6.8 7.1 7.3 7.3 7.5 7.7 7.9 7.7 7.4 7 6.6 7.4 8.4 8.7 8.7 8.7 8.7 8.7 8.7 8.6 8.4 8.3 8.2 8 7.9 7.8 7.6 7.5 7.3 8.8 2.5 4.1 6.4 8 8.2 7.4 7.5 7.6 7.7 7.8 7.9 8.1 9 13.7 22.9 23.1 23.5 22.8 22.5 22.1 21.9 22.2 20.2 17.8 19.1 19.9 20.8 20.7 21.2 23.7 25.9 29.6 33.9 38.4 45 48 48.9 49.1 48.8 47.3 44.5 39.3 35.5 31.3 27.5 27.7 27.9 25.9 24.4 27.4 29 32 33 35.1 38.6 43.1 48.3 50.9 55.5 56.8 58.9 59.3 59.1 58.8 57.2 55.7 53.8 50.2 46.4 42.9 37.9 33.7 30 28.5 27.3 26.8 26.7 26.7 26.9 27.4 26.8 27 27.2 27.7 29.2 30.6 31 30.8 30.3 32.3 33.9 35.3 35 36.4 37 35.8 34.3 34.7 33.5
6.2 5.8 6.3 7.2 7.3 7 6.1 5.9 4.4 -1 -1 5 6.3 7.1 7.4 7.8 7.2 6.5 5.9 5.3 4.7 4 -1 -1 -1 4.4 4.4 4.4 4.6 4.7 4.9 5 5.1 5.2 4.8 5.5 -1 -1 -1 3.9 5.2 3.3 2.9 2.5 -1 -1 -1 -1 4.9 5.2 4.9 4.6 5 5.7 5.7 6 5.6 4.6 2.5 2.3 0.7 -1 -1 -1 -1 3.4 3.4 3.8 4.6 5.5 6.2 6.8 7.1 7.2 7.2 7.3 7.4 7.6 7.4 7 6.7 6.6 7.5 8.6 8.4 8.2 8.1 7.9 8.2 8.6 8.4 8.2 8.1 7.9 7.8 7.7 7.5 7.4 7.2 7.1 7.1 6.8 2.5 5.4 8.4 7.4 6.9 7.3 7.4 7.5 7.4 7.5 7.6 7.9 8.6 12.7 19 24 24.1 22.5 19.1 19.6 21.3 22.9 20.1 17.6 17.6 19.5 19.7 20.2 20.8 22.5 26.9 31.4 35.9 42.4 47.4 49.3 48.9 48.1 46.9 43.8 40.7 36.3 32.1 27.3 27.6 27.7 26.8 25.6 24.5 26.7 27.3 27.6 29 32.1 36.3 39.6 43.9 50.3 56.3 60.1 62.3 62.7 61.2 59.1 56.6 54.6 52.9 50.4 47.5 43.2 38.5 33.5 30.2 28.2 27.3 27.4 27.3 27 26.7 26.9 26.8 26.9 27.1 27.4 27.6 28.4 27.7 29.8 31.3 33 34.6 35.3 35.7 35.3 34.4 33.5 33 32.9
6.2 6.2 6.4 7.3 7.2 6.9 6.5 6.2 4.9 -1 -1 -1 6.2 7.3 7.7 7.5 6.9 6.2 5.6 5 4.4 3.7 -1 -1 -1 5 5.1 5.1 5.1 5.2 5.3 5.5 5.6 5.7 5.3 6.3 5.9 -1 -1 4 3.8 3.4 3.3 -1 -1 -1 -1 4.6 4.2 4.5 4.3 4 4.9 6.1 5.8 5.1 4.2 3.4 2.5 2.2 2 -1 -1 -1 -1 2.5 3.1 3.8 4.4 4.9 5.6 6.8 7.1 7.1 7.2 7.2 7.2 7.3 7.1 6.9 6.7 6.5 7.1 7.6 7.1 7 6.8 7.5 8.2 8.5 8.2 8 7.8 7.7 7.5 7.4 7.3 7.1 7 7 7.1 6.5 6 2.7 4.3 6.3 6.7 7.1 7.2 7.3 7.2 7.1 7.1 7.5 8.1 8.7 9 14.7 22.1 21.1 19.3 17.1 17.7 22.3 21.4 19.1 17.1 18.1 18.5 19.2 19.6 21.6 25.1 28.7 33.3 38.4 45.9 49.2 48.4 47.2 46.6 44.8 41.1 36.9 34.5 28.3 27.5 26.7 25.7 24.8 24.3 24.1 24.1 24.2 25.4 29.9 33.7 36.7 39.1 44.3 50.2 54.8 57.7 59 59.6 58 56.1 54.5 52.5 51.5 50.8 47.6 43.1 37.7 32.1 29.9 28 28.1 27.9 27.6 27.3 27 26.7 26.6 26.7 26.8 26.7 27.6 28.5 29.9 30.6 31.5 32.8 33 33.4 33.5 33.2 32.9 32.6 32.5
6.6 6.6 6.5 7.4 7 6.7 6.4 6.1 5.7 -1 -1 -1 5.4 7.5 7.8 7.2 6.6 5.9 5.3 4.7 4.1 -1 -1 -1 -1 6 5.2 5.5 5.7 5.8 5.9 5.9 6.1 6.2 6.4 6.8 6.4 -1 -1 4.1 3.8 3 2.8 -1 -1 -1 5.9 5.4 4 3.6 3.6 3.7 4.4 5 4.7 3.7 2.8 2.2 1.9 1.6 3 1.6 -1 -1 -1 -1 2.9 3.5 4.7 4.7 4.8 6.9 7 7.1 7.1 7.2 7.2 7.1 7.3 7.8 7.6 7.3 6.9 6.5 5.9 6.2 6.9 7.5 8.1 8.3 8 7.7 7.6 7.4 7.3 7.1 7 6.9 6.8 7.2 7.2 6.8 6.2 5.5 4.1 2.6 6.1 6.7 6.9 7.1 7 7 7 7 7.3 7.8 8.2 8.6 8.5 11.5 13.3 15.1 17.1 20.1 22.6 20.8 19.5 18.1 17.6 18.1 18.3 20.3 23.4 25.6 29.3 34.2 39.5 42.9 46.4 47.7 46.9 46.2 43.9 38.6 35.7 33.1 30.4 30 29.2 28.4 27.8 27.4 25.4 24.4 24.7 28.3 31.3 33.8 35.6 38.8 43.4 49 52.9 55.2 56.8 56 54.1 52.8 50.8 49.9 48.7 46 41.8 37.7 34.4 32.3 30.4 28.7 28.6 28.2 27.9 27.5 27.2 26.9 26.7 26.5 28.1 29 29.9 30.9 31.4 31.4 31.9 31.9 32.8 33.3 32.9 32.5 32.2 32.4
9.4 7.5 6.9 7.2 6.9 6.6 6.3 5.9 5.6 5.2 -1 -1 -1 7.2 7.6 7.2 6.8 6.3 5.9 5.4 5 -1 -1 -1 6 6 6 5.5 5.7 5.9 6.2 6.4 6.6 6.7 6.9 6.5 -1 -1 -1 3.8 3.4 2.2 -1 -1 -1 -1 5.3 4.4 3.4 2 2.5 2.5 2.3 3.8 2.6 2 2.1 2.2 2.2 2.1 2 3 -1 -1 -1 -1 3.6 4.7 4.5 4.3 4.4 6.6 7 7.1 7.1 7.2 7.2 6.9 6.8 7.4 8 7.6 5.9 5.7 5.5 6.2 6.9 7.5 8.1 8.2 7.9 7.6 7.3 7.2 7 6.9 6.7 6.6 7 7.3 7.3 7.1 6 5.4 5.4 5.4 2.5 5.7 6 6.9 7 7 7 7.1 7.6 7.1 7.3 7.7 7.9 8.3 9.1 9.1 10.4 17 20.7 22.4 20.7 19.4 18.4 15.3 13.6 18.2 20 22.1 25.3 28.4 31.8 35.3 38 40.5 43.9 41.8 41.8 40.2 38.9 36.5 34.7 34.1 34.6 34.9 33.4 32.3 29.2 25.9 23.5 22.7 26.8 29.6 32.1 34.7 38 41.2 46.1 51.1 54.4 54.5 54.3 53.9 52.5 50.7 48.7 46.6 44.3 42.2 38.7 35.5 33.2 32 30.5 29.1 28.4 28.1 27.6 27 26.7 26.6 29.3 29.8 31.4 32.8 33.9 33.3 33.5 33 33.4 33.9 34 33.8 33.6 34
11 10.5 8.1 7.1 6.8 6.5 6.2 5.8 5.5 5.3 -1 -1 -1 6.5 7.4 7.1 6.3 6.1 5.9 5.6 -1 -1 -1 -1 5.8 6 6 6 5.7 5.9 6.2 6.4 6.6 5.6 5.7 -1 -1 -1 3.5 3.1 2.9 -1 -1 -1 -1 5.7 6 3.6 2.6 2.7 2.8 2.8 2.6 2.5 2.1 2.1 2.3 2.5 2.7 2.6 2.5 2.2 -1 -1 -1 -1 2.2 3.6 4.3 4.2 4.2 5.8 7.1 7.1 7.1 7.2 7.2 6.6 6.3 6.9 7.4 7 6.4 5.9 6.3 7.2 6.8 7.5 8.1 8.1 7.8 7.5 7.1 6.9 6.8 6.6 6.5 6.8 7.2 7.5 7.6 7.4 5.9 5.8 5.8 5.8 4.2 -1 5.3 6.9 6.9 6.9 7.2 7.7 8.2 8.7 7.9 7 7.3 7.8 8.4 8.4 8.1 8.3 14.1 21.6 21.1 20.1 18.6 18.4 18.1 13 17.2 18.2 22 23.3 26.1 29.3 32.7 36.3 38.2 39.1 38.6 39.2 39 37.6 36.5 37.5 39.1 40 38.7 35.2 31.7 28.2 24.5 21.6 21.4 23.5 27.3 29.5 34.2 39.6 46 50.6 54.8 59.6 60 59 57.2 55.1 53.2 51.3 49.3 47.1 44.7 41.3 38.8 36.7 35.3 35.2 33.2 32.3 29.4 27.3 26.5 26.5 27.8 30.8 32.9 34.9 36.3 36.9 37.4 37.8 38.9 40.8 40.2 40.5 38.8 38.7
-1 -1 -1 -1 -1 6.2 6 5.8 5.7 5.2 -1 -1 -1 5.5 6.4 7.2 6.8 5.9 5.1 4.6 -1 -1 -1 -1 4.4 5 5.6 6 6 5.9 6.2 5.7 -1 -1 -1 -1 -1 3.5 2.9 2.7 -1 -1 -1 -1 5.1 5.6 3.9 2.6 2.8 3 3.1 3.1 2.9 2.5 2.2 2.3 2.5 2.7 3 3.2 3 2.7 2.5 -1 -1 -1 3.8 3.9 4.6 4.8 4.6 5.1 6.7 6.8 6.9 7 7.1 6.4 5.8 6.3 6.3 6.1 5.9 5.4 5.5 6 9.2 6.9 7.5 8 7.9 7.3 7 6.7 6.5 6.4 6.6 7 7.4 7.7 8.1 7.6 6 6.2 5.8 5.1 5 -1 -1 6.9 6.9 7.4 7.8 8.1 8.4 8.6 8.7 8 7.3 7 7.5 7.6 7.7 8 8.3 8.8 17.5 20 18 18.5 17.9 12.8 15.3 16.1 20.4 19.9 22.5 25 27.5 30.8 34.6 35.9 37.8 39 38.1 38.8 39 39.8 40.1 41.9 41.9 37.9 34 29.9 25.8 22.5 21.3 22 24.6 26.5 31.2 36.8 43.4 49.9 57.2 63.4 63.2 62.2 61.1 59.8 59.1 57.8 56.3 54.4 52.4 49.4 45.6 43.3 42 41 38.9 35.6 33.3 31.4 26.3 26 26.5 30.9 34 37 42.1 46.4 47.7 49 49.1 51.7 52.2 51.5 49.3 46.7
-1 -0.9 1.7 -1 -1 -1 5.1 5.5 5.8 5.1 -1 -1 -1 4.5 5.3 6.2 7.1 6.4 5.6 4.4 -1 -1 -1 3.7 4.1 4.5 4.8 5.2 5.6 6 -1 -1 -1 -1 -1 -1 -1 4 3.6 3 -1 -1 -1 6.5 6 5.2 2.9 3 3 3.2 3.3 3.4 3.3 2.9 2.3 2.5 2.7 2.9 3.1 3.4 3.3 3 2.7 -1 -1 -1 -1 4.1 4.7 5.1 5 5.1 5.3 5.8 5.9 6 5.3 5.4 5.4 5.4 5.5 5.8 6 6.1 6.3 6.2 6.2 6.5 7.1 7.8 7.6 7.6 7.4 6.7 6.3 6.5 6.6 6.4 6.5 5.7 5.5 -1 -1 -1 -1 4.4 4.7 -1 -1 6.9 7.2 7.4 7.6 7.9 8.1 8.3 8.3 8.6 8.2 7.7 7.2 7.1 7.3 7.6 7.9 8.1 8.4 9.3 11.7 9.2 10.2 11.8 11.2 12.5 14.2 13.7 19.4 21.8 23.3 26.1 30.5 35.1 37.4 40.4 41.3 41.8 41.8 41.3 40.8 40.8 40.2 37.8 33.4 29.5 26 23.4 22.7 23.5 23.9 24.9 25.7 32.3 38.4 44.5 49.5 53.3 59.4 61.1 60.3 60.5 60.3 59.7 58.1 56.4 54.5 53.1 50.6 47.1 44.6 43.7 42.3 38.8 35.7 33.9 31.1 24.6 25.8 28.8 32.7 37.4 38.3 46.9 55.1 56.7 57.5 58.3 57.5 55.2 51.4 47.9
-1 3.6 5 5.9 -1 -1 -1 4.4 5.3 5.2 -1 -1 5.7 5.8 6 6.2 6.3 6.9 5.6 -1 -1 -1 -1 4.1 4.8 5.2 5.6 5.9 6.3 -1 -1 -1 -1 3.3 3.4 4 3.8 4 4 -1 -1 -1 -1 6.3 6.7 4.2 3.2 3.3 3.4 3.5 3.6 3.7 3.6 3.1 2.3 2.5 2.7 3 3.3 3.4 3.2 3 2.7 -1 -1 -1 -1 4.9 5.4 5.2 5.5 5.5 5.5 5.5 5.4 5.5 5.6 5.7 5.7 5.7 5.7 6 6.8 6.9 7 6.8 6.4 6.7 7 7.5 7.4 7.3 7.2 7.1 5.4 4.9 5.3 5.7 5.9 4.5 -1 -1 -0.4 4.8 3.3 -1 -1 -1 5.7 6.6 6.9 7.2 7.4 7.6 7.9 8 7.9 8.2 8.3 8.2 7.7 7.2 7.1 7.1 7.4 7.7 7.9 8.8 8.7 8.3 8.4 9.1 9.8 9.7 10.5 11.3 13.2 16.3 19 22.2 26.5 31.5 36.5 41.8 46.4 45.6 44.3 44 43.7 42.2 39.2 37.1 33.1 29.2 26.4 24.2 24.2 24.2 24.3 24.3 24.4 27.1 31.4 36.5 39.9 44.5 49.3 54.5 58.3 58.3 57.2 56.7 54.8 53.8 52.7 51.8 49.1 47.2 45 44.1 42.4 39.8 36.5 35.2 32.5 27.1 25.1 24.9 26.6 31.5 37 39.6 45.2 48.7 52 55.2 53.6 50.2 46.3 42.7
-1 4.6 5.2 5.9 6 -1 -1 -1 4.1 -1 -1 -1 6 6.8 6.8 6.7 6.7 6.2 5.5 -1 -1 -1 -1 4.4 5.4 5.9 6.3 6.7 5.2 -1 -1 -1 3.7 3.3 3.7 3.9 4 3.6 -1 -1 -1 -1 6.6 6.3 6 3 3.4 3.6 3.9 3.9 4 4.1 4 3.5 2.4 2.6 2.9 3.2 3.5 3.3 3.1 2.9 2.7 -1 -1 -1 -1 5.9 5.8 5.5 5.5 6.2 6.2 5.9 5.5 5.9 5.9 6 6 6 6 6 7 7.7 7.7 7.3 6.8 6.8 7.2 7.3 7.2 7 6.8 5.9 4.1 3.5 3.2 3.3 3.3 3.9 -1 -1 3.7 4 4.8 5.3 3.6 -1 4.3 6.2 6.6 6.9 7.2 7.4 7.6 7.7 7.5 7.8 7.6 8.4 7.9 7.4 7.3 7.2 7.2 7.2 7.5 8.3 7.9 8 8.1 9 9.3 9 9.2 9.8 10.9 12.5 18.3 19.7 23.2 28.6 34.5 40.6 46.4 48.2 45.9 46.8 44.9 41.8 38.7 36.1 32.7 29 26.7 24.8 24.1 24.2 24.2 24.3 24.1 24.1 24.4 27.1 32 32.7 37.4 43.7 48.8 54.9 54.5 54.1 54.4 53.5 52.6 50.8 48.8 47.2 45.1 43 41.9 38.7 36.3 34.9 32.9 29.6 26.5 25.9 24.4 24.5 30.1 34.8 37 40.6 44.4 46.4 46.5 44.4 40.6 37.3
-1 4.3 5.2 5.9 5.9 -1 -1 -1 -1 -1 -1 -1 4.8 6.5 6.4 6.4 5.8 5.4 5 -1 -1 -1 -1 4.6 5.6 6.6 7.1 5.8 5.4 -1 -1 -1 -1 3.3 4 3.8 4 -1 -1 -1 -1 7.4 8.4 7.9 7.2 3.7 3.4 3.7 4 4.3 4.5 4.5 4.7 4.4 3 2.9 3.1 3.4 3.5 3.3 3 2.8 2.6 -1 -1 -1 -1 6.4 6.1 5.7 5.6 6.3 6.5 6.2 5.8 6.1 6.3 6.3 6.3 6.3 6.3 6.2 7.5 8 7.7 7.2 6.9 6.5 6.5 6.1 5.8 6 5.9 4.7 3.3 2.9 2.7 2.8 4.1 -1 -1 3.4 3.4 3.8 4.3 4.9 4.4 4.5 4.8 5.3 6.1 6.5 6.9 7.2 7.4 7.3 7.1 5.9 6.8 7.6 8.2 7.7 7.6 8 8.3 8.5 7.2 7.6 7.6 7.8 8.1 8.6 8.8 8.7 8.9 9.2 9.2 10.7 13.7 17.2 22.3 27.9 33.9 39.4 43.7 44.8 44.2 43.2 42.6 40.3 37.8 35.2 32.2 29.3 27 25.4 24.3 23.9 24 23.6 23.4 23.4 23.5 24 24.4 27.6 30.6 33.7 39.6 46 51.6 53.2 53.6 53.6 53.3 52.8 50.6 47.8 46.6 42.8 41.3 38.7 36.7 34.3 31.6 28.6 26.7 25.9 24 21.6 22.7 24.9 28.6 32.6 35.4 37.5 38.6 37.5 35.7 34.5
-1 3.9 4.8 5.7 5.5 5.1 4.6 -1 -1 -1 5.3 3.5 4 5.3 6 5.4 4.9 4.6 4.4 -1 -1 -1 -1 5.4 6.3 7.1 7.4 6.9 6.4 5.8 -1 -1 -1 -1 -1 -1 -1 -1 -1 -1 7.4 8.2 8.5 8.6 8.3 4.7 3.3 3.7 4 4.3 4.6 4.7 4.6 4.3 3.6 3.1 3.4 3.6 3.4 3.2 3 2.8 2.6 -1 -1 -1 -1 6 6.2 6 5.7 5 6.2 6.2 6.1 6.3 6.7 6.7 6.7 6.6 6.1 5.9 7.5 7.5 7.1 7 6.8 6.3 5.6 5.4 4.3 3.9 3.1 3.3 3.6 2.8 2.5 2.6 -1 -1 2.9 2.8 3 3.3 3.9 4.4 4.7 5 5.3 5.7 5.7 6 6.4 6.8 7.2 7 6.6 5.5 6.2 6.9 7.7 8 8.1 8.3 8.5 8.6 8.1 7.4 7.3 7.5 7.8 8.2 8.2 8.4 8.7 8.8 8.9 8.9 11.7 20.4 25.3 30.5 35.7 41.3 45.3 46.1 45.6 45 43.6 40.8 38.3 35.1 32.3 29.7 27.4 25.9 24.9 23.8 23.5 23.2 23 23.1 23.3 23.8 23.8 23.1 26 30 31.4 34 40.8 46.9 51.2 54.3 55 54.7 52.5 50.4 46.7 42.6 40.1 38 35.7 33.3 28 27.8 26.7 25.3 23.7 22.7 19.5 21.4 25.6 27.9 30 32.1 33.3 33.5 32.4 31.5
-1 -1 4.4 4.9 5.1 4.6 4.2 4.7 4.5 -1 -1 -1 -1 4.2 4.2 4.5 3.9 3.9 3.7 -1 -1 -1 5.5 6.2 6.9 7.4 7.9 7.5 6.9 6 -1 -1 -1 -1 -1 -1 -1 -1 -1 5.8 8.1 8.2 8.4 8.6 8.8 7.4 3.1 3.6 4 4.4 4.6 4.4 4.2 3.9 3.3 2.6 3.4 3.6 3.6 3.6 3.5 3.4 3.3 -1 -1 -1 -1 -1 5.8 5.7 5 3.8 4 4.1 4.2 4.2 6.6 5.8 5.4 5.3 5.3 5 6.7 7.2 7 6.8 6.7 6.1 5.3 4.6 2.4 2.4 2.4 2.7 2.9 2.4 2.7 2.8 -1 4.2 2.6 2.5 2.6 2.9 3.5 3.7 4 5.5 5.2 4.8 5.1 5.5 5.9 6.2 6.7 6.4 5.6 5.5 6.2 6.9 7.5 7.9 8 8 8.1 8.4 8.5 7.8 8 7.8 7.5 7.8 7.9 8.2 8.3 8.5 8.6 8.6 8.8 19 26.6 32.4 37.5 44 46.8 46.8 46.9 46.5 44.8 41.8 39 36.1 33.4 31 28.1 26.1 25.1 24.2 23.9 24 22.9 22.8 23.1 23.3 23.2 23.2 23.4 25.3 27.6 29 29.5 35.2 41.7 46.4 47.6 48.5 50.2 48.2 45.7 41.3 38.8 36.8 34.3 31.8 26.9 26.2 25.7 24.8 23.7 22.6 23.2 20.8 23 25.6 26.5 27.9 29 28.5 27.3 27.8
-1 -1 3.7 4.1 4.5 4.2 3.7 -1 -1 -1 -1 -1 -1 -1 -1 -1 1.4 3.3 -0.5 -1 -1 -1 6 6.6 7.1 7.6 8.1 8.1 7.2 6.6 6.1 4.7 4.6 -1 -1 -1 -1 5.1 5.7 6.6 8.3 8.6 8.6 8.7 8.9 8.5 4.9 3.7 3.9 4.2 4.4 4 3.8 3.6 3 3.6 3 3.4 3.3 3.3 3.3 3.3 3 -1 -1 -1 -1 -1 4 3.5 3.3 3.3 3.5 3.5 3.6 -1 -1 -1 -1 -1 -1 4.8 6.1 6.8 6.8 6.7 6.6 5.9 5.2 3.2 2.7 2.4 2.4 2.4 2.4 2.4 3.3 3.3 -1 3.2 2.9 2.7 2.8 2.5 2.7 3 3.5 4.7 3.9 4.3 4.6 4.9 5.3 5.7 6.4 6.5 5.4 5.9 6.6 7.3 7.3 7.3 7.5 7.7 8 8.3 8.6 8.3 8.6 8.6 8.7 7.8 7.7 7.9 8 8.1 8.3 8.6 8.8 9.1 24.4 33 37.5 45 46.6 46.7 47 46.8 44.9 41.8 39.5 37 35.4 33.3 30.2 27.1 25.4 24.7 24.2 23.8 23 22.5 22.7 22.9 22.7 23.1 23.4 23.5 24.1 24.5 26.5 28 30.4 36.3 39.3 42.5 44.9 43.9 43 39.2 37.6 35.8 33.3 30.3 25.8 25.5 24.8 24 23.2 22.2 21.4 20.8 22 23.2 23.7 24.2 24.3 24.2 24.4 24.3
-1 -1 -1 3.5 3.7 -1 -1 -1 -1 -1 -1 5.3 -1 -1 -1 -1 -1 -1 -1 -1 -1 5.3 6.3 7 7.5 8 8.5 8.7 8.6 8.1 7.5 6.8 6.4 5.6 5.6 5.7 5.7 6.2 7.1 8 8.6 8.6 8.7 8.8 8.9 9 6.8 3.5 3.7 4 4.1 4.3 3.4 3.2 3.4 -1 3.1 2.7 3.2 3.1 3.1 2.9 2.5 -1 -1 -1 -1 -1 3.7 3.3 4.3 3.5 3.6 -1 -1 -1 -1 -1 -1 -1 -1 -1 6 6.2 5.8 5.8 6 5.9 4.6 3.2 2.9 2.5 2.4 2.4 2.4 3.3 3.3 -1 -1 -1 -1 -1 -1 -1 3.2 3.1 3.9 3.3 3.4 3.8 4.1 4.4 4.8 5.1 5.9 6.4 3.5 6.1 7.4 7.3 7.3 7.2 7.2 7.5 7.8 8.1 8.5 8.7 8.6 8.5 9.7 9.1 7.8 7.6 7.7 7.8 8 8.6 8.9 9 11.5 19 25.7 36.4 44.8 46.6 46.9 45.3 42.5 41 38.4 36.6 35.6 35.1 32.6 29.4 26.4 25.5 24.5 23.9 23.3 23.1 22.8 22.5 22.7 23.1 23.5 23.3 23.3 23.8 23.9 24.3 26.6 30.8 31.8 34.2 36 37.3 38.4 38.1 36.6 34.8 32.8 26.4 25.4 25.1 24.3 23.3 22.9 22.7 21.4 20.3 20.5 21.4 21.5 22.5 23.1 22.1 21.7 21.6
9.4 -1 -1 -1 -1 -1 -1 -1 -1 10.1 9.5 7.3 7.7 7.5 6.8 6 5.3 4.9 5.5 5.1 4.4 5.4 6.4 7.3 7.9 8.4 8.9 9 9 9 9 8 7.1 6.2 6.1 6.1 6.2 6.4 6.9 7.8 8.3 8.4 8.5 8.6 8.7 8.9 8.9 7.4 3 3.7 3.8 4 -1 -1 -1 -1 -1 3.6 3.1 3.2 2.9 2.9 2.4 -1 -1 -1 -1 -1 -1 4.5 4 -1 -1 -1 -1 -1 -1 3.3 5.2 3.7 -1 -1 -1 5.5 4.8 4.8 5.2 5.1 3.6 3.4 3 2.7 2.4 2.4 -1 -1 -1 -1 -1 -1 -1 -1 -1 -1 -1 -1 -1 3.4 4.5 3.4 3.6 3.9 4.8 4.3 4.5 4.8 3.9 6.1 5.6 6.8 7.1 6.7 6.9 7.2 7.6 8 8.3 8.4 8.3 8.6 9.8 8.4 7.8 7.7 7.6 7.5 7.8 8.2 8.8 8.7 9.4 9.2 10.6 15.8 23.4 31.3 39 41.7 39.2 37.5 36.3 35.3 35.6 35.9 35.4 32.3 29.8 27.4 25.6 24.1 24.2 24 23.8 22.9 22.8 23.2 23.3 23.2 23 23.1 23.3 23.4 23.6 23.9 25.4 27.5 29 30.9 32 34 34.4 33.2 31.9 26.5 27.2 24.8 24 23.1 23.1 22.7 21.7 20.8 18.7 18.9 19.9 20.9 21.1 20.7 20.3 20
10.9 10.5 -1 -1 -1 -1 -1 10.6 10.8 11.7 11.1 8.8 9.1 9 8.6 8.2 7.4 6.6 6.4 4.8 4.5 5.5 6.4 7.4 8.3 8.8 9.3 9.3 9.3 9.2 9.1 8.7 7.8 6.9 6.5 6.5 6.6 6.8 7 7.6 8.1 8.2 8.3 8.5 8.6 8.8 8.9 8.6 8 5.2 4.2 3.4 -1 4 4.2 3.7 -1 3.6 -1 -1 -1 -1 4.2 -1 4.5 -1 -1 -1 -1 -1 -1 -1 -1 -1 -1 -1 -1 7.3 5.7 5.9 -1 -1 -1 -1 4.8 4.6 4.5 4 3.5 3.1 2.8 2.5 2.9 -1 -1 -1 -1 -1 -1 -1 -1 -1 -1 -1 -1 -1 -1 -1 -1 3.5 3.3 4 4.7 4.1 3.2 3.7 3.9 5.3 6.4 6.1 6.2 6.6 6.7 7.1 7.5 7.8 8 8 8 9 8.7 8 8 7.9 7.9 7.6 8.6 7.8 8.7 8.2 8.5 8.5 8.8 9.1 10 12.8 17.6 21.6 29 32.9 35 34.8 35.6 36.6 37.8 35.7 33.2 30.8 28.5 26.2 24.9 25.2 24.4 22.9 21.9 23.3 23.2 23 22.8 22.9 23.2 23.3 23.1 23.4 23.8 23.7 25.2 25.8 26.7 27.3 28.5 28.4 26.1 25.6 25.4 24.4 23.2 22.7 22.6 22.3 21.5 20.5 17.9 17.8 19.3 19.4 18.9 19 19 19.1
11.5 12 12.1 11.8 11.4 11.1 10.9 11 11.2 11.4 11.7 10.9 10.6 8.8 8.4 8 7.6 7.4 6.4 4.8 4.6 5.6 6.5 7.5 8.4 9.3 9.6 9.6 9.4 9.3 9.2 9 8.5 7.6 6.9 7 7 7.2 7.4 7.6 7.8 8 8.2 8.4 8.6 8.7 8.9 8.7 8.1 7.7 7.1 4.9 -1 4 4.4 3.9 -1 3.4 -1 4.1 -1 -1 -1 -1 3.5 3.7 -1 -1 -1 -1 -1 -1 -1 -1 -1 8.9 7.8 6.2 6.6 10.4 9.1 -1 -1 -1 -1 5 4.4 3.7 3.3 2.9 2.5 2.3 -1 -1 -1 -1 -1 -1 -1 -1 -1 -1 -1 -1 -1 -1 -1 -1 -1 -1 -1 -1 6.1 4.1 3.3 3.5 3.2 3.1 5.5 5.9 6.4 6.8 6.7 7 7.3 7.6 7.7 7.7 8.1 8.5 8.1 8.1 8.2 8.2 8.1 7.9 8.8 9.6 8.3 7.9 8.1 8.2 8.5 8.8 9.1 9.8 9.6 9.7 13.8 20.5 28.3 31.2 33 37.3 42.3 38.8 36.3 33 31.1 28.6 27 26.2 24.6 23.2 22.4 23 22.8 22.6 22.5 22.9 23.8 23.9 23.5 23 23.3 23.1 22.8 23.1 23.5 23.9 24 24 23.1 22.9 22.7 22.4 21.3 21.8 21.5 20.4 20.5 20 17.6 17.4 17.6 18.4 18.3 18.4 18.6 18.6
12.9 12.9 12.7 12.4 12 12 12.1 12.1 12.2 12.2 12.3 12 10.4 8.5 8.1 7.7 7.8 8.2 6.7 5.1 5.2 5.7 6.6 7.6 8.5 9.5 9.8 9.7 9.5 9.4 9.3 9.2 9 8.3 7.4 7.4 7.5 7.7 7.9 8 7.9 7.9 8.1 8.3 8.5 8.6 8.8 8.8 8.2 7.8 7.7 7 -1 3.8 4.4 4.1 4.3 6.1 4.7 4.5 4.6 -1 -1 -1 2 2 4.1 5.1 -1 -1 -1 -1 5.8 7.6 8.5 7.2 5.6 8.4 11.4 11.8 11.2 -1 -1 -1 -1 4.4 3.8 3.4 3 2.7 2.3 2.9 -1 -1 -1 -1 -1 -1 -1 -1 -1 -1 -1 -1 -1 -1 -1 -1 -1 -1 -1 -1 -1 3.4 5.5 3.4 2.9 2.9 3.5 2.6 4.4 7 6.9 6.9 7.2 7.3 7.3 7.5 8.4 8.2 8 8.1 8.2 8.4 8.4 8.1 8 8.3 8.7 9 8.1 7.9 8.2 8.4 8.8 11.1 8.8 9.1 9.5 10.2 15.5 25.1 27.8 33.1 37.1 38.7 36 33.9 32.5 30.9 28.9 27.9 26.3 24.2 23.1 22.4 22.5 22.3 22.2 22.8 23.9 24.5 23.9 23.5 23.1 22.7 22.4 22.3 22.7 23.1 23.2 22.3 21.9 21.6 21.7 21.1 20.3 20.3 19.1 19 16.9 18.9 16.3 17.5 18.4 18.7 18.7 18.5 18.5 18.5
13.5 13.5 13.3 13.1 12.8 12.9 12.9 13 12.7 12 11.4 10.8 10.2 8.3 7.9 8.2 8.6 8.7 7 5.6 5.8 6 6.7 7.7 8.6 9.4 9.6 9.6 9.7 9.5 9.4 9.3 9.1 9 8.1 7.8 7.9 8.1 8.3 8.2 8.1 8 8 8.2 8.4 8.6 8.7 8.8 8.3 8 7.8 7 -1 4.9 4.3 4.4 4.7 8.2 8 8.4 8.8 8.1 7.9 7.1 5.3 4.7 2.8 2.4 4.3 4.3 3.8 4.4 5.6 6.1 6.7 8.6 9.6 12 13 13.3 12.5 8.7 -1 -1 -1 3.9 4 3.5 3.1 2.8 3 -1 -1 -1 -1 -1 -1 -1 -1 -1 -1 -1 -1 -1 -1 -1 -1 -1 -1 -1 -1 -1 -1 -1 -1 -1 4.1 3.1 3.9 3.4 3.8 4.2 4.7 6.8 6.9 7 7.1 7.6 7.8 8 8 8.1 8.3 8.4 8.5 8.6 8.5 8.5 8.6 9.1 8.4 8.4 8.1 8.5 11.7 10 8.8 8.4 9 9.6 10.7 15 20.7 25.5 31.8 34.8 34.8 33.4 32.3 30.5 30.1 29.4 27.7 25.7 23.9 22.6 22.1 21.8 22 22.8 23.8 24.9 24.3 23.6 23.1 21.9 21.8 21.7 21.7 22.3 22.1 21.6 21 20.7 20.4 19.8 19.1 18.5 16.6 17.4 18.5 17.1 17.1 18.4 19 19 19 18.9 18.8 18
13 13.4 13.7 13.8 13.7 13.3 12.7 12.1 11.4 10.8 10.2 9.5 8.9 8.1 8.5 9 9.4 9 7.3 6.3 6.4 6.6 6.8 7.8 8.7 9 9.2 9.3 9.3 9.4 9.5 9.4 9.3 9.1 8.8 8.2 8.3 8.5 8.5 8.5 8.3 8.2 8.2 8.2 8.3 8.5 8.6 8.8 8.4 8.1 8.1 6.8 -1 5.6 6.9 6.6 7.6 8.4 8.2 8.1 8.4 8.1 8.1 8.5 7.7 7.5 5.5 2.4 2.4 4.2 3.3 6 6.4 6.5 7.3 10.6 13 13.4 14.4 14.3 13.2 11.1 -1 -1 -1 3.9 5.3 4.9 4 4 3.2 -1 -1 -1 -1 -1 5.3 5.9 5.9 6.1 5.4 -1 -1 -1 -1 -1 -1 -1 -1 -1 -1 -1 -1 -1 -1 -1 -1 -1 4.4 4.1 4.4 4.2 4 3.5 6.6 6.7 6.9 7 7.2 7.7 8 8.1 8.2 8.4 8.5 8.5 8.7 8.9 8.9 9 8.8 9.1 8.8 8.2 9 7.2 7.9 7.8 8.3 8.8 9.8 10.6 13.8 20.2 23.5 26.8 29.8 29.3 28.5 28.7 28.9 28.4 29.4 27.4 25.8 24.5 22.7 21.1 20.1 21.4 22.7 23.8 23.4 23.6 22.9 21.4 21.3 21 20.9 21.1 21.5 21 20.4 19.5 18 17.8 17.2 16 16.5 19.2 20.3 19.2 18.8 19.3 19.3 19.3 19.3 19.2 19 18.6
12.6 13 13.3 13.9 13.5 12.9 12.3 11.7 11.1 10.5 9.9 9.3 8.7 8.6 9.3 9.8 10.2 9.3 7.6 6.9 7.1 7.3 7.5 7.9 8.5 8.6 8.8 8.9 8.9 9 9.1 9.2 9.2 9.2 9.1 8.6 8.8 8.8 8.7 8.7 8.6 8.4 8.4 8.4 8.4 8.4 8.6 8.7 8.5 8.3 8.4 7.5 -1 -1 7.3 8.2 8.8 8.8 8.6 8.4 8.3 8.2 8.5 8.8 8.7 8.5 8 6.7 5.5 2.4 5 5 6.4 7.3 8.3 11.9 13.5 14.3 14.9 14.6 13.5 12.2 8.4 -1 -1 -1 4.5 5.1 4.6 4.5 2.8 -1 -1 -1 -1 4.5 6.3 6.7 6.7 6.9 6.9 6.8 5.7 3.4 1.8 -1 -1 -1 -1 -1 -1 -1 -1 -1 -1 -1 -1 -1 -1 -1 4.4 4.3 4 3.7 3.3 5 5.9 6.3 7.3 7.6 7.9 8.1 8.2 8.3 8.3 8.3 8.5 8.7 9 9.2 9.6 10.2 10 8.3 9 8.3 9.5 8.2 7.6 8.1 8.7 9.1 11.3 13.8 17.4 20.4 23.4 24.1 24.7 26.2 26 27.3 28.9 28.6 27.3 26.2 24.7 23.3 22.8 20.9 22.2 22.2 21.9 21.7 21.6 21 20.6 20.8 19.6 19.2 19.7 20.2 20 18.5 16.2 15.9 18.5 18.5 19.3 20.5 20.6 19.8 19.6 19.7 19.7 19.6 19.6 19.5 19.2 19.3
12.2 12.9 13.5 13.8 13.6 13 12.4 11.8 11.2 10.6 10 9.5 9.1 9 10 10.6 11 9.6 7.9 7.5 7.7 7.9 8.1 8.1 8.1 8.2 8.4 8.5 8.6 8.6 8.7 8.8 8.9 8.9 9 9.1 9 9 9 8.9 8.8 8.6 8.5 8.5 8.5 8.5 8.5 8.6 8.5 8.6 8.8 8.5 6.3 -1 7.1 8.8 8.7 8.6 8.5 8.3 8.3 8.5 8.8 8.9 8.8 8.6 8.5 8.1 6.8 6.1 5.3 5.5 7.5 8 7.7 11.1 12.6 14.5 14.6 14.5 13.9 12.6 7.9 -1 -1 -1 3.4 3.8 3.7 3.4 -1 -1 -1 -1 -1 4.2 5.8 6.9 7 7 6.9 6.8 6.8 6.7 6.5 4.9 2.8 -1 -1 -1 -1 -1 -1 -1 -1 -1 -1 -1 -1 -1 -1 4.5 4.4 4 3.5 3.1 3.1 5.3 7.1 7.4 7.9 8 8.1 8.1 8.1 8.1 8.3 8.5 8.7 8.9 8.9 9 11.7 11 9 8.9 8.7 8.2 8.2 11.2 7.8 7.8 9.1 10.8 12.9 15.5 17.4 20.2 21.5 22.9 23 24.5 26.3 27.4 27 25.1 23.8 22.3 21.9 20.8 21.1 20.6 20.6 21 20.7 20.8 19 19 19.2 18.6 18.4 18.8 19 13.7 16.3 20.1 21 20.5 20.5 20.5 20.7 20.4 20.1 19.7 20 20 19.9 20 20.1 21.9
12.7 13.1 13.4 13.8 13.7 13.1 12.5 11.9 11.3 10.7 10.2 9.8 9.4 9.3 10.3 11.3 11.8 10 8.2 8.2 8.4 8.5 8.3 8.2 7.9 7.8 8 8.1 8.2 8.3 8.3 8.4 8.5 8.6 8.7 8.8 9.1 9.1 9.1 9.2 9 8.8 8.7 8.7 8.7 8.7 8.7 8.7 8.7 8.8 8.9 8.9 7.1 -1 7.6 8.7 8.4 8.4 8.3 8.3 8.6 8.8 8.9 8.9 8.9 8.7 8.7 8.7 8 7.1 6 6.2 7.4 7.9 8.3 9 11.9 13.4 14.3 14.4 14.2 13.1 10.2 -1 -1 -1 4.6 3.9 3.9 3.8 1.9 -1 -1 -1 -1 3.7 5.3 7 7.1 7 6.9 6.8 6.9 7.1 6.8 6.9 6.9 6.1 4 2.1 -1 -1 -1 -1 -1 -1 -1 -1 -1 -1 -1 -1 3.1 4.3 3.7 3.3 3 4.7 6 7.2 7.7 8 8 8 8 8 8.1 8.3 8.5 8.5 8.5 8.5 8.7 8.9 8.1 9.6 8.8 8.2 8.1 8.6 11.2 9.5 11.6 10.6 8.8 14.6 14.6 16.6 17.2 18 19.6 21.4 23.2 25.8 25.9 23.5 22.4 20.8 20.6 19.5 16.5 16.4 16.3 21.5 16.4 16.1 16 17.4 17.3 14.8 14.4 14 13 18.6 18.6 19.3 21 20.4 20.3 20.3 20.5 20.8 20.2 19.7 20.4 20.5 20.7 20.8 22 23.6
12.6 13 13.4 13.7 13.8 13.2 12.6 12 11.4 10.9 10.6 10.2 9.8 9.7 10.7 11.7 12.2 10.3 8.7 8.8 8.6 8.5 8.3 8.2 7.9 7.6 7.6 7.8 7.8 7.9 8 8 8.1 8.7 9 8.3 8.5 9 9.1 9.1 9.1 9 8.8 8.8 8.8 8.8 8.6 8.4 8.6 8.8 8.9 8.6 7.1 -1 7 -1 6.2 -1 8.4 8.6 8.9 8.9 8.9 8.9 8.9 8.8 8.8 8.9 8.9 8.1 7 6 6.6 7.4 6.9 8.6 11.5 13 14.2 14.5 14.3 14 10.9 -1 -1 -1 3.8 3.5 3.5 3.4 2.2 -1 -1 -1 -1 4.6 5.3 7.1 7.1 7 6.9 6.9 7.1 7.2 7.2 7.2 7.3 7.3 6.8 5.9 3.8 3.1 2.1 -1 -1 -1 -1 -1 -1 -1 -1 -1 -1 2.7 3.8 3.8 3.6 3.1 3.9 7.2 7.5 7.8 7.8 7.8 7.8 7.8 7.8 8.1 8.1 8.1 8.2 8.2 8.3 8.1 8.2 8.9 8.6 8.1 7.9 10.1 9.4 8.5 8.4 8.6 8.9 10.2 12.5 13.9 14.7 14.9 14.9 14.9 14.9 15.8 16.8 18.6 17.8 15.7 18.4 20.5 19.8 19.8 19.7 20.1 20.3 18.9 17.5 16.1 16.3 14.2 12.7 13 14.5 20.6 21.8 21.3 21 20.3 19.8 20.2 20.2 20.5 20.1 19.7 20.4 21.2 21.5 21.6 22.4 23
12.9 13 13.3 13.7 13.9 13.3 12.7 12.1 11.7 11.3 10.9 10.5 10.1 10 11 12 12.4 11 9.2 8.8 8.7 8.5 8.3 8.2 8 7.6 7.3 7.4 7.5 7.5 7.6 7.7 8.9 9.1 8.6 7.8 7.6 8.9 9 9 9 9 9 8.7 8.5 8.2 8 8.2 8.5 8.7 8.9 7.9 -1 -1 -1 -1 5.3 -1 -1 8.9 8.8 8.8 8.9 8.9 9 9 9.1 9.1 9.1 8.9 8.1 7 6 6.5 8.5 11.3 13.7 14.2 13.5 13.7 14.4 13.4 10.3 6.5 -1 -1 -1 3.3 3.3 3.3 3 -1 -1 -1 -1 -1 6.2 7.1 7.1 7 7 7.1 7.2 7.4 7.5 7.5 7.6 7.7 6.7 5.8 4.6 3.8 3 4.5 2.4 1.4 0.5 -1 -1 -1 -1 -1 -1 1.3 2.7 4.3 4.1 4.1 4.1 6 7.6 7.6 7.6 7.6 7.6 7.7 7.7 7.8 7.9 8 8.1 8.2 8.3 8.6 8.8 9 8.4 7.8 9.7 8.2 8.8 8.5 8.3 8.7 9.1 9.7 12.3 13.7 14.6 15.5 16.1 16.5 17.7 18.9 23.8 23.5 21.9 21.3 22.3 21.8 21.5 21.1 21.2 20.9 20.4 20.2 18 16.8 15.9 14.5 12.8 12.9 20 22.3 22.1 21.4 20.7 20.5 20.4 20.7 20.5 19.8 20.2 19.7 20.2 20.7 21.8 21.3 21.6 22.5
13.2 13.3 13.3 13.6 14 13.4 12.8 12.4 12 11.6 11.3 10.9 10.5 10.4 11.4 12.2 12.3 11.8 9.9 9.4 9 8.5 8.4 8.2 8 7.7 7.3 7 7.1 7.2 7.2 9.1 9.3 8.7 8 7.2 6.7 8 8.9 8.9 8.9 8.9 8.6 8.2 7.9 7.6 7.4 8.1 8.3 8.6 8.8 8.7 7.8 -1 -1 6 -1 -1 -1 8.8 8.7 8.8 8.8 8.9 9 9.2 9.4 9.5 9.6 9.2 8.6 8 6.4 5.8 8.7 11.8 13.7 13.8 13.1 12.8 13.4 12.3 9.2 -1 -1 -1 4.2 4.2 3.9 3.6 3.3 -1 -1 -1 -1 -1 5.4 7.1 7.1 7 7.1 7.3 7.4 7.6 7.7 7.8 7.8 7.7 7.7 7.2 6.2 5.1 3.5 3.4 2.7 2.9 1.9 0.8 -1 -1 -1 -1 -1 0.2 1.6 2.8 4.4 4.4 4.4 5.4 7.4 7.4 7.4 7.5 7.7 7.8 7.7 7.9 8 8.1 8.2 8.3 8.5 8.8 9.1 9 8.8 8.8 8.4 9 8.8 8.4 8.3 8.7 9.1 9.6 11.9 13.3 14.2 15.3 16.3 17 17.5 18.1 18.6 20.8 23.1 23.7 23.8 23.1 22.4 21.1 21.9 21.5 21.2 21.6 21.5 20.6 17 15.4 17.7 20.2 21.9 22.9 21.7 21.6 21.1 20.9 20.8 20.6 20.6 21.1 19.7 19.7 20.1 19.4 19.6 19.3 19.3 20.1
12.5 12.8 13.2 13.8 13.9 13.5 13.2 12.8 12.4 12 11.6 11.2 10.8 10.7 11.7 12.2 12.3 12.4 10.6 10.1 9.7 9.2 8.7 8.2 8.1 7.7 7.4 7 6.7 7.3 9.3 9.4 8.8 8.3 7.5 6.7 5.9 7.2 8.5 8.9 8.9 8.7 8 7.5 7.7 7.4 7.8 8 8.3 8.6 8.8 8.4 9 9.1 8.9 -1 -1 6.3 8 8.6 8.7 8.8 8.9 9 9.1 9.3 9.5 9.6 9.8 9.3 8.6 7.9 7.2 6.5 7.3 9.8 12.4 13.3 13 12.7 11.8 10.4 7.6 -1 -1 -1 3.8 4.3 4.1 4 3.7 -1 -1 -1 -1 -1 -1 5 6.9 7.1 7.3 7.4 7.5 7.7 7.8 7.8 7.7 7.7 7.6 7.5 7.1 6.1 4 4 3.6 2.8 3.3 1.8 -1 -1 -1 -1 -1 -1 0.8 1.8 2.7 4.5 4.4 4.6 7.4 7.6 7.7 7.9 7.9 7.8 7.7 7.8 8.1 8.3 8.4 8.5 8.6 8.9 9.2 8.7 8.9 9.2 9 9.1 8.7 8.3 8.3 8.7 9.2 9.7 11.5 12.8 13.8 14.9 15.8 16.5 16.7 17.1 17.5 18.7 20.2 21.2 22.4 22.3 21.1 20.7 21.4 21.4 21.2 21 20.4 19.5 16.3 18.8 25.4 25.1 25.2 23.7 22.2 21.3 22.3 22.2 22 21.8 21.3 21.3 20.5 20.4 20.4 20.2 19.3 19 19 19.5
12.4 13.2 13.6 13.6 13.7 13.6 13.5 13.1 12.7 12.3 11.9 11.6 11.2 11.1 12 12.1 12.3 12.4 11.4 10.8 10.4 9.9 9.4 8.9 8.4 8.7 8.3 7.9 7.5 9.6 9.5 9 8.4 7.7 6.9 6.1 5.4 6.3 7.6 8.8 8.8 8.2 7.6 7.3 7.5 7.7 7.5 6.6 8.2 7.9 8.2 8.8 8.9 9 8.9 -1 -1 8.3 8.9 8.8 8.9 8.9 9 9.1 9.2 9.4 9.5 9.7 9.7 9.2 8.5 7.8 7.1 6.3 5.5 7.7 10.5 12.1 12 11.2 9.5 7.4 -1 -1 -1 -1 4.4 3.5 4.1 3.9 3.8 3.3 -1 -1 -1 -1 -1 5.7 6.8 7.2 7.3 7.4 7.6 7.7 7.8 7.8 7.8 7.7 7.6 7.5 7.3 6.7 4.8 4.5 3.7 2.7 3.4 2.7 0.4 -1 -1 -1 -1 -1 0.1 1.5 3.3 3.3 4.5 5.5 7.7 7.9 8 7.9 7.9 7.8 7.8 7.8 8.1 8.4 8.6 8.6 8.6 8.8 8.5 7.8 8.5 8.9 9.2 9 8.7 8.3 8.3 8.8 9.2 9.8 10.9 12 13.1 13.9 15.4 16.1 16.2 16 16.5 17.6 18.6 19.9 20.7 19.5 19.2 19.1 19.9 19.8 19.1 19 18.4 16.3 18.4 26.1 28.7 29.4 30.3 27.9 26.3 25.1 24.3 23.8 23.2 22.9 22.5 21.8 21.4 21.5 21.7 21.2 21.2 20.3 19.9 20.4
12.8 12.9 13.3 13.3 13.2 13.1 13.1 13 12.9 12.7 12.3 11.9 11.5 11.4 12 12.1 12.2 12.4 12.2 11.6 11.1 10.6 10 9.5 9.5 11.1 10.7 9.9 9.9 10.4 9.1 8.5 8 7.2 6.4 5.6 4.8 5.4 6.7 8 8.6 8.3 8 6.8 6.9 6.4 7.1 -1 4.3 -1 -1 8.7 8.8 8.8 6.9 -1 6.3 9.2 9.1 9.1 9.2 9.4 9.4 9.4 9.4 9.5 9.6 9.6 9.6 9.1 8.4 7.6 6.9 6.2 6 5.7 8.2 10.4 9.8 6.7 -1 -1 -1 -1 -1 -1 4.6 4.4 4.1 3.7 3.6 3.3 -1 -1 -1 -1 -1 5.2 6.7 7.2 7.3 7.5 7.6 7.7 7.8 7.8 7.7 7.6 7.5 7.4 7.3 6.9 5.2 4.7 3.8 2.7 2.1 3.2 -1 -1 -1 -1 -1 -1 0.7 2.5 3.3 3.3 3.3 7.3 8 8.1 8 7.9 7.9 7.8 7.8 7.7 8 8.3 8.6 8.4 8.4 8.6 7.8 7.3 7.2 7 6.8 6.9 7.3 7.7 7.9 8.3 8.7 9.3 10.3 11.1 12 13.4 15.2 15.7 15.9 15.9 14.1 18.1 18.2 18.4 18.5 18.5 17.9 17.9 18 18.2 17.7 16.8 16.3 16.1 15.3 20.9 27.9 34.1 35.1 32.9 29.7 29 28 27.7 27.4 25.8 24.2 23.6 22.6 22.2 23 21.8 23.1 23.3 22.4 21.7
12.6 13 12.9 12.8 12.7 12.6 12.6 12.5 12.4 12.3 12.3 12.2 11.9 11.7 11.9 12.1 12.2 12.3 12.2 12.1 11.6 11.1 10.5 10 11.3 12.6 12.3 11.8 11 9.7 9.2 8.1 7.5 6.7 5.9 5.1 4.3 4.5 5.8 7.3 8.2 8.2 7.7 6.5 -1 -1 6.4 -1 -1 -1 -1 7 7.7 7.2 6.1 -1 -1 8.3 9.3 9.3 9.3 9.9 9.9 9.9 9.8 9.6 9.5 9.5 9.5 8.9 8.2 7.5 7.2 7.1 7.1 6.6 5.7 7.9 -1 -1 -1 -1 -1 -1 -1 4.8 4.5 4.3 4.1 3.9 3.6 3.4 -1 -1 -1 -1 -1 5.7 6.6 7.4 7.5 7.6 7.7 7.7 7.9 7.8 7.6 7.5 7.5 7.4 7.3 7.1 5 4.2 3.1 2.3 1.9 3.3 -1 -1 -1 -1 -1 -1 -1 -1 3.3 3.3 3.3 7 7.9 8.1 8 8 7.9 7.8 7.8 7.7 8 8.3 8.5 8.4 8.2 8.1 7.8 7.7 7.3 6.9 6.4 6.5 6.9 7 7.3 7.7 8.1 8.7 9.6 10.1 10.6 12.6 14.7 15.2 15.4 15.4 11.5 17.2 17.4 17.5 17.6 17.6 17 16.8 16.8 16.9 16.6 16.6 14.6 12.4 12.5 19.3 21.8 25.3 27.6 28.9 27.8 29.4 30.4 30.7 31.3 30.8 29.5 28.5 26.8 25.1 24.2 23.8 24.2 24.4 24.5 24.3
12.6 12.5 12.4 12.3 12.2 12.1 12.1 12 11.9 11.8 11.8 11.7 11.6 11.2 11 11 10.9 10.8 11.3 11.2 11 10.7 10.4 10.3 11.3 12.4 12.8 11 9.1 7.8 7.3 6.9 7.1 6.9 5.9 4.8 -1 -1 -1 6.2 7.6 8.2 7.3 5.3 -1 -1 5.4 5.3 -1 -1 -1 5.4 6.4 6 5.3 4.7 -1 -1 9.6 9.6 9.6 9.8 10.3 10.1 10 9.8 9.6 9.4 9.4 8.8 8.4 8.4 8.3 8.2 8.2 6.3 -1 -1 -1 -1 -1 -1 -1 -1 4.8 4.7 4.5 4.3 4.1 3.9 3.6 3.3 -1 -1 -1 -1 -1 6.5 6.3 7.5 7.6 7.7 7.7 7.8 7.9 7.9 7.8 7.7 7.6 7.5 7.4 7.1 5.3 3.4 2.4 2.1 2.1 2.9 -1 -1 -1 -1 -1 -1 -1 -1 3.3 3.3 3.3 3.3 7.1 8 8 8 7.9 7.9 7.8 7.7 7.9 8.4 8.5 8.3 8.1 8.1 8.2 8.1 7.8 7 6.4 6.1 6.6 6.4 6.7 7.1 7.5 7.9 8.2 8.6 9 9.5 11.6 12 13.8 14.1 14.1 15.2 15.8 16.5 16.6 16.6 16.5 16.2 16.1 16.2 16.3 16.3 15.1 13.9 13.1 19.3 18.7 19.3 19.4 19.5 21.1 20.7 21.8 24.2 26.4 28 30.9 31.4 29.6 27.4 24.9 24.7 25.2 25.3 25 25
12.3 12 11.9 11.8 11.7 11.6 11.6 11.5 11.4 11.3 11.3 11.1 10.8 10 9.7 9.5 9.4 9.3 10.3 10.3 10.1 9.8 9.6 10.2 10.6 11 11.7 9.4 7.3 5.8 5.3 6.3 5.5 6.1 -1 -1 -1 4.6 -1 -1 6.1 -1 -1 -1 -1 -1 3.5 4.2 -1 -1 -1 3.6 4.5 -1 -1 -1 -1 -1 9.7 9.4 9 9.8 10.1 9.9 9.8 9.7 9.5 9.4 9.4 9.1 8.9 8.8 8.6 8.4 8.1 -1 -1 -1 -1 -1 -1 -1 -1 4.6 4.6 4.6 4.5 4.3 4.1 3.9 3.6 3.3 -1 -1 -1 -1 -1 4.8 5.7 7.5 7.6 7.7 7.9 8 8 8 7.9 7.8 7.7 7.6 7.5 7.1 3.8 2.3 2.3 2.3 2.3 -1 -1 -1 -1 -1 -1 -1 -1 -1 3.3 2.6 3.3 3.3 5.2 7.6 7.7 7.7 7.8 7.8 7.8 7.8 8 8.6 8.5 8.1 7.6 7.6 8.3 9.2 8.4 7.2 6.3 6.2 5.8 5.8 6.1 6.6 7.1 7.2 7.6 8 8.4 8.9 9.3 9.3 10.5 12.2 12.4 13.3 13.8 14.6 15 16.1 15.7 15.5 15.5 15.8 16 15.9 14.4 13.2 12.8 14.8 17.7 17.1 16.9 17.1 18.2 18.1 17.9 17.8 19.2 19.5 23.2 27.5 28.6 29 28.4 26 26.1 26.3 25.8 25.2
12.8 12.3 11.9 11.4 11.2 11.2 11.1 11 10.9 10.7 10.5 10.2 9.8 8.8 8.5 8.2 8 7.8 9.3 9.3 9.2 8.9 9.2 10.1 10.9 10.9 9.1 6.8 5.7 -1 4.6 5.5 3.6 -1 -1 -1 4.9 6.3 5.6 -1 3.9 -1 -1 -1 7.7 8 7.5 -1 -1 9.5 -1 -1 3.4 -1 8.1 8.7 8.7 5.5 8.1 8.4 8.8 9.8 9.8 9.6 9.5 9.4 9.4 9.4 9.4 9.2 9 8.7 8.4 8.3 -1 -1 -1 -1 -1 -1 -1 3.4 3.3 3.6 4.3 4.3 4.3 4.2 4.1 3.8 3.6 -1 -1 -1 -1 -1 -1 6 7.3 7.5 7.7 7.9 8.1 8.1 8.1 8.2 8.1 8 7.9 7.8 7.1 4.3 1.8 2.2 2.3 2.3 3.3 -1 -1 -1 -1 -1 -1 -1 -1 3.6 3.5 3.3 -1 3.3 3.3 7.3 7.3 7.4 7.5 7.5 7.5 7.6 7.8 8.1 8 7.5 7.1 7 7.7 7.6 7.2 6.8 6.2 5.8 5.2 5.4 5.8 6.4 6.6 6.7 7 7.4 7.8 8.1 8.4 8.3 9 8.9 10.2 11.4 12 12.5 13.5 15.6 14.9 14.3 14.9 15.4 15.7 15.6 14.5 12.8 12.4 12.1 14.9 14.5 14.9 15.3 16.3 15.9 15.8 15.7 15.6 15.4 15.6 16.1 18.8 25.8 27.8 26.2 26.6 26.7 26.3 25.8
12.7 12.3 11.9 11.6 11.2 10.9 10.6 10.4 10.2 9.9 9.7 9.4 8.6 7.6 7.3 8 8.8 9.2 9 8.4 8.3 8.2 9.1 10 10.8 6.6 6.3 7.6 5.1 -1 3.8 5.7 3.5 -1 -1 4.8 6.4 8.1 7.5 7.8 8.5 8.8 9.1 8.5 8.9 8.9 8.4 8.3 8.6 9.2 8.8 -1 -1 -1 8.4 9 9.2 9.7 9.2 7.8 8.7 9.6 9.4 9.4 9.4 9.4 9.4 9.4 9.4 9.2 9 8.8 8.5 -1 -1 -1 -1 -1 3.3 3.5 3.6 3.6 3.5 3.5 3.5 3.9 4 4 3.9 3.8 3.6 -1 -1 -1 -1 -1 -1 6.4 8 7.9 7.9 8.1 8.2 8.2 8.2 8.3 8.3 8.1 8 7.8 5.7 1.3 1.5 1.8 2.1 2.2 -1 -1 -1 -1 -1 -1 -1 -1 -1 3.3 3.3 3.3 -1 3.3 3.3 6.4 6.8 6.9 6.9 6.9 7 7.2 7.9 7.8 7.1 7 6.5 6.3 6.6 6.4 6.3 6.2 5.7 5.2 4.7 5 5.7 6.1 6.1 6.1 6.4 6.7 7 7.2 7.5 7.7 8.2 7.3 8.1 9.1 9.7 10.1 10.6 12 12.1 12.3 14.1 14.1 14.4 14.7 13.8 13 12.4 10.9 12.6 13 13.6 14.2 14.4 13.9 13.6 13.3 14.3 14.1 14.1 14.1 14.8 14.7 17.7 18.2 18.9 19.8 20.6 20.6
13 12.7 12.3 11.9 11.4 11 10.5 10 9.4 9.1 8.8 8.5 7.6 8.5 9.8 10.8 11.3 11.6 10.5 9.1 7.7 8.4 9.7 7.8 4.6 6.4 10.5 11.5 8.7 9.6 7.8 7.3 3.9 -1 -1 6.1 7.9 10.2 10.7 10 9.3 9.2 9.5 9.6 9.8 9.8 9.4 9.5 9.6 9.7 10.1 10 -1 -1 9 9.7 10.1 10.3 10.3 9.5 9.3 9.5 9.4 9.4 9.5 9.5 9.5 9.5 9.4 9.2 9 8.8 8.4 -1 -1 -1 -1 3.8 3.6 3.9 3.8 3.8 3.7 3.7 3.7 3.6 3.6 3.8 3.7 3.6 3.1 -1 -1 -1 -1 -1 -1 7.9 8 8.2 8.1 8.2 8.3 8.3 8.3 8.4 8.4 8.3 8 7.2 2.5 1.4 1.9 1.9 1.8 2.4 -1 -1 -1 -1 -1 -1 -1 -1 3.5 3.5 3.4 3.4 -1 3.3 3.3 4.4 5.7 6.1 6.4 6.4 6.4 7.1 7.8 7.7 7.1 6.5 5.9 5.8 5.8 5.9 6 5.2 5.1 4.5 4.3 5 5.6 5.8 5.9 5.9 5.9 6.1 6.2 6.4 6.6 6.9 6.9 7.6 8.5 9.1 9.4 9.6 10 10.5 10.2 9.9 10.8 10.2 10.8 11.7 12.6 11.2 9.8 9.8 10.5 11.5 11.8 12.4 12.6 12 11 11.8 12.9 13.5 13.4 12.8 12.7 12.6 12.8 12.4 11.8 11.7 11.6 12.2
12.2 12.1 11.9 11.5 11.1 10.8 11.1 11 9.7 8.8 8.2 8.4 9.3 10.2 11 12.2 12.4 12.5 11.8 10.3 8.9 7.6 9.6 9 10.8 11.1 11.2 11.7 12.3 11.9 11.2 11.1 8.6 8.3 4.6 9.2 11.1 11 10.6 9.9 9.3 9.2 9.5 9.8 10.1 10.4 10.4 10.4 10.1 9.9 9.8 9.7 9.6 8.9 10 10.6 10.6 10.5 10.5 10.4 10 10 9.9 9.7 9.5 9.5 9.5 9.5 9.4 9.1 8.3 7.1 -1 -1 -1 -1 4.2 4.1 3.9 3.9 3.9 3.9 3.8 3.8 3.7 3.7 3.7 3.6 3.4 3.3 1.2 -1 -1 -1 -1 -1 6.7 7.2 7.3 7.7 8.2 8.3 8.3 8.4 8.4 8.4 8.5 8.4 7.6 4.7 1.4 1.7 2 2.5 2.4 -1 -1 -1 -1 -1 -1 -1 -1 -1 3.6 3.7 3.7 3.5 -1 3.3 3.3 3.6 4.2 4.8 5.2 5.7 5.9 6.1 6.5 6.8 4.9 5.9 6.6 2.6 2.6 3.2 5.6 3.7 4 3.9 3.8 4.8 5.3 5.6 5.8 5.6 5.5 5.8 6.6 6.1 6.5 6.6 6.7 7.7 8.9 9.1 9.3 9.4 9.5 9.6 9.3 9 9.1 9.2 9.2 9.5 9.8 9.8 8.9 8.9 9.2 10.1 10.4 10.6 10.7 10 9.7 9.5 9.9 10.7 11.1 11 11.3 11.4 10.8 11.7 12.2 11 11 11
12.5 12.1 11.7 11.3 11.4 11.6 11.9 12.2 11.2 11 10.3 9.1 9.9 10.8 11.5 11.6 12.4 12.5 11 11.5 9.9 8.6 10.6 10.8 11.2 11.2 11.2 11.8 12.2 11.9 11.2 11.1 11.1 9.8 5 11.1 11.1 10.7 10.3 9.9 9.2 9.1 9.6 10 10.3 10.1 10.2 10.8 10.5 10.1 9.8 9.6 9.4 9.2 9.6 10.7 10.7 10.7 10.7 10.6 10.5 10.4 10.3 10.2 10.1 9.8 9.6 9.6 8.9 7.7 7.6 7 -1 -1 -1 -1 3.7 3.6 3.7 3.8 3.8 3.8 3.8 3.7 3.7 3.6 3.6 3.5 3.3 1.9 -1 -1 -1 -1 -1 -1 5.2 6.4 7.7 8.3 8.2 8.2 8.3 8.3 8.4 8.4 8.5 8.2 7.5 2 2 2.4 2.5 2.6 3.7 -1 -1 -1 -1 -1 -1 -1 -1 -1 3.7 4 3.7 3.5 -1 3.3 3.3 3.5 4.1 4.5 4.8 5.1 5.6 5.3 5.2 4.9 -1 -1 -1 -1 -1 -1 -1 -1 -1 -1 4.2 4.6 5.2 5.4 5.6 5.3 5 5.6 5.9 6 7 6.9 7.5 8 8.6 8.6 8.7 8.9 9 9.7 9.4 9.1 9 9.1 9.3 9.6 9.2 8.9 8.2 8.1 8.4 8.7 9.3 9.2 9.2 9 8.9 8.9 8.8 8.8 9 9.1 9.7 10.2 10.6 10.6 10.4 10.6 10.8 10.8
12.3 11.9 11.7 11.9 12.2 12.5 12.8 12.8 12.7 12.6 12 10.5 10.6 11.4 11.8 11.9 11.9 12.5 9.9 11.4 10.9 9.2 10.1 10.4 11 11.3 11.3 11.8 12 11.7 11.2 11.1 11.1 9.8 4.5 11.1 10.8 10.4 10 9.6 9.2 9.1 9.2 9.4 9 9.1 9.4 10.2 10.8 10.2 9.9 9.7 9.5 9.4 9.3 10.2 10.5 10.5 10.5 10.5 10.7 10.2 10.2 10.3 10.4 10.4 10.1 8.8 7.3 6.4 5.6 5.1 -1 -1 -1 -1 3.4 3.5 3.6 3.7 3.7 3.7 3.7 3.7 3.6 3.6 3.6 3.4 1.8 -1 -1 -1 -1 -1 -1 5.2 6.5 7.5 8.4 8.4 8.3 8.2 8.2 8.3 8.3 8.4 8.4 8 5.8 1.5 2.1 2 2.1 2.1 -1 -1 -1 -1 -1 -1 -1 -1 -1 -1 4 3.8 3.6 -1 -1 3.3 3.3 3.5 3.9 3.9 4.1 4.4 4.9 -1 -1 -1 -1 -1 -1 -1 -1 -1 -1 -1 -1 -1 -1 -1 -1 5.2 5.3 4.8 4.6 5 5.2 6.4 6.5 6.3 6.9 6.9 7.9 8.3 8.3 8.3 8.5 9.1 9.4 9.2 9.1 9.1 9 8.7 8.4 8.1 7.5 7.5 7.7 7.9 8.2 8.3 8.4 8.4 8.4 8.3 8.3 8.4 8.6 8.4 8.1 7.9 8.6 9.2 9.1 9.5 9.6 10.3
12.1 12.2 12.5 12.9 12.8 12.7 12.9 12.9 12.8 12.7 12.5 12.3 11.2 12 12.1 12.1 12.2 12.5 10.4 7.8 9.8 9 9.6 10 10.7 11.3 11.4 11.8 11.8 11.5 11.2 10.8 9.7 6.2 5 10.7 10.2 9.9 9.5 9.1 9.3 9.4 8.8 9.1 8.5 8.3 8.5 9.2 9.9 10.4 10 9.8 9.7 9.6 9.5 9.5 10.3 10.3 10.3 10.5 10.9 9.8 9.6 9.7 9.7 9.8 8.6 7.4 6.3 4.7 3.3 3.5 -1 -1 -1 -1 3.4 3.5 3.6 3.6 3.6 3.6 3.6 3.6 3.6 3.5 3.5 3.3 -1 -1 -1 -1 -1 -1 -1 6.4 7.4 8.3 8.4 8.4 8.4 8.2 8.2 8.3 8.3 8.3 8.4 7.8 3.9 2 1.9 1.9 1.8 -1 -1 -1 -1 -1 -1 -1 -1 -1 -1 3.5 3.7 3.6 3.4 -1 3.2 3.3 3.3 3.4 3.6 3.6 3.4 3.7 -1 -1 -1 -1 -1 -1 -1 -1 -1 -1 -1 -1 -1 -1 -1 -1 -1 -1 -1 -1 -1 4.1 4.4 5.7 5.9 5.7 6.3 6.4 7.1 8 8 8 8.1 8.5 9.5 9 8.7 8.6 8.2 7.9 7.5 7.2 6.8 6.7 7.1 7.3 7.6 7.8 7.9 7.8 7.8 7.9 8 8.1 8.2 8.2 7.5 7.8 7.9 7.9 7.9 8.5 7.7 8.7
12.9 12.8 12.7 12.6 12.8 13 13 13 12.8 12.7 12.6 12.5 12.3 12.3 12.3 12.4 12.4 12.5 11.3 8.5 9.2 9 9.1 9.7 10.3 11 11.5 11.8 11.5 11 9.6 8.4 6.4 4 6.9 10 9.5 9.1 8.6 8.2 9.5 9.4 9.3 9.6 9.5 9 9 9.1 9.6 10.3 10.1 10 9.9 9.8 9.7 9.7 9.7 10.1 10.3 10.6 11 10.4 9 9.1 9.1 8.9 7.6 3.8 4.1 6.9 6.3 6.4 -1 -1 -1 -1 3.3 3.4 3.5 3.5 3.5 3.5 3.5 3.5 3.5 3.5 3.4 -1 -1 -1 -1 -1 -1 -1 5.8 7.2 8.1 8.5 8.5 8.5 8.4 8.2 8.2 8.2 8.3 8.3 8.3 7.6 2.2 1.6 2.2 1.9 1.7 -1 -1 -1 -1 -1 -1 -1 -1 -1 3.3 3 3.4 -1 -1 -1 3.3 3.3 3.1 3.4 3.3 3.2 3.2 -1 -1 -1 -1 -0.5 0.7 1.3 1.1 0.2 -1 -1 -1 -1 -1 -1 -1 -1 -1 -1 -1 -1 -1 -1 -1 4.5 5.2 5.2 5 5.7 6.2 7.7 7.7 7.7 7.1 8.2 8.9 8.1 8.3 8.3 7.7 7.2 6.6 6.4 6.2 6.4 6.6 6.8 7 7.3 7.3 7.3 7.4 7.5 7.6 7.7 7.8 7.9 6.9 7.7 7.7 7.6 7.5 7.8 7.8 7.1
12.7 12.6 12.5 13 13 13.1 13.2 13 12.9 12.7 12.6 12.5 12.4 12.3 12.4 12.4 12.5 12.4 10.1 7.8 9.6 10.1 9 9.4 10 10.7 11.3 11.6 10.2 8.8 7.7 6.7 5.2 4 6.4 8.7 8.7 8.2 7.8 7.5 9.4 9.5 9.7 9.9 10.1 9.8 10 10.3 10.4 10.3 10.3 10.2 10.1 10 10 9.9 9.9 10 10.4 10.7 11.1 10.8 9.5 8.4 8.5 7.7 6.2 4.3 6.4 9 9.2 9.4 -1 -1 -1 -1 -1 3.3 3.4 3.4 3.4 3.4 3.4 3.4 3.4 -1 -1 -1 -1 -1 -1 -1 -1 -1 7.1 8 8.6 8.6 8.6 8.6 8.5 8.2 8.2 8.2 8.2 8.3 8.3 7.3 1.7 1.4 2.1 2.2 1.9 -1 -1 -1 -1 -1 -1 -1 -1 -1 3.3 3.3 3.3 -1 3.3 3.3 3.3 3.3 3.2 3.2 3 3 -1 -1 -1 -1 2.7 2.3 3.1 0.9 0 0 0.3 2.4 2.8 -1 -1 -1 -1 -1 -1 -1 -1 -1 -1 -1 -1 -1 -1 -1 3.4 4.6 5.3 7.4 7.4 6.5 6.9 8 7.6 7.7 8 7.9 7.4 6.8 6.3 5.8 7 6.7 6.9 7 7 7.3 7.5 7.5 7.5 7.4 7.4 7.4 7.5 7.6 7.1 7.4 7.3 7.2 7.2 7.3 7.2 6.1
12.4 12.7 13 13.1 13.2 13.2 13.3 13.1 12.9 12.8 12.6 12.5 12.4 12.4 12.4 12.4 12.5 10.9 8.6 7.5 9.6 11.6 11.7 10.8 11.4 12.1 11.8 11.3 11.3 10.3 9.3 8.4 5.2 4.1 6 7.2 7.2 7.1 6.9 7.1 8.8 9.9 10.1 10.3 10.4 10.5 10.6 10.6 10.6 10.7 10.7 10.5 10.3 10.2 10.1 10.1 10 9.9 10.4 10.8 11.2 11 10.1 8.5 7.7 7.5 7.1 5.5 9.3 9.1 9 9 9 -1 -1 -1 -1 -1 3.3 3.3 3.3 3.3 3.3 3.3 -1 -1 -1 -1 -1 -1 -1 -1 7.7 8.2 8.4 8.6 8.6 8.6 8.6 8.6 8.6 8.3 8.1 8.2 8.2 8.2 8.3 7.6 2.4 1.7 2.2 2.5 -1 -1 -1 -1 -1 -1 -1 -1 -1 -1 3.3 3.3 3.3 3.3 3.3 3.3 3.3 3.9 3.2 3.2 3.2 2.8 -1 -1 -1 1.3 2.1 2.2 1.5 2.4 2.8 2.3 2.2 2.2 2.2 0.8 4.2 -1 -1 -1 -1 -1 -1 -1 -1 -1 -1 -1 -1 -1 -1 -1 4.2 6.6 6 5.7 6.7 7.7 8 7.9 7.8 7.6 7.1 6.6 6.1 5.6 5.9 7.1 7 7 7 7.4 7.8 8.1 8 7.9 7.7 7.6 7.5 7.4 7 8.2 7.4 6.8 6.6 6.3 5.9 4.1
12.9 13.1 13.2 13.2 13.3 13.3 13.3 13.1 13 12.8 12.7 12.5 12.4 12.4 12.4 12.5 11.7 9.4 7.7 8.6 9.4 11.2 12.5 12.6 12.2 11.9 11.6 11.1 10.5 10.8 11 9.4 6.4 4.4 5.4 5.6 5.5 5.5 5.9 7 7.6 8.9 10.3 10.6 10.8 10.9 10.9 10.9 11 11 11 11 10.8 10.5 10.2 10.1 10 9.9 10.3 10.8 11.2 10.7 10.1 7.9 8 4 6.1 8.9 9.4 9.4 9.3 9.3 9.2 -1 -1 -1 -1 -1 -1 -1 2.9 3.3 3.3 2.7 -1 -1 -1 -1 -1 -1 -1 -1 8 8.4 8.7 8.7 8.6 8.7 8.7 8.7 8.6 8.4 8.1 8.2 8.3 8.4 8.6 7.3 2.8 0.9 1.4 1.6 -1 -1 -1 -1 -1 -1 -1 -1 -1 -1 2.5 3.3 3.3 3.3 3.3 3.3 3 3.2 3.2 3.3 3.3 -1 -1 -1 -1 2.1 2.6 0.4 2.4 2.7 2.9 2.9 2.8 2.5 2.7 2.6 2.2 3.3 2.5 0.3 -1 -1 -1 -1 -1 -1 -1 -1 -1 -1 -1 -1 -1 -1 3.4 5.3 6.7 6.9 7.4 8.3 6.8 6.8 6.7 6.2 5.7 5.6 5.7 7.1 7.1 7 7.1 7.5 7.9 7.9 7.8 7.7 7.5 7.4 7.3 7.3 5.4 5.9 5.5 6.3 5.8 5.5 3.4 5.4
13.2 13.2 13.3 13.4 13.4 13.5 13.4 13.2 13 12.9 12.7 12.5 12.4 12.4 12.5 12.1 10.2 8 8.8 9.7 10.5 11.4 12.9 13.5 12.8 11.8 11.5 11 10.2 9.8 10.1 10.4 7.9 5.5 4.2 4.5 4.9 5.3 5.8 7.7 8.4 9 9.7 10.4 11.1 11.2 11.2 11.3 11.3 11.4 11.4 11.4 11.3 11 11.2 11.4 10 9.9 10.3 10.5 10 8.3 6.2 8.8 9.1 9.2 9 9.5 10.1 9.9 9.9 9.8 9.8 9.8 -1 -1 -1 -1 -1 -1 -1 -0.4 -0.1 -1 -1 -1 -1 -1 -1 -1 8.2 7.7 8.1 8.7 8.9 8.8 8.4 8.5 8.6 8.7 8.7 8.1 8.3 8.5 8.6 8.7 8.6 6.5 2.8 0.8 0.9 1.3 -1 -1 -1 -1 -1 -1 -1 -1 -1 -1 1.6 3.3 3.3 3.3 3.3 2.9 2.7 3 3.9 2.9 2.6 -1 -1 -1 -1 2.1 2.8 2.1 2.3 2.6 2.8 2.8 2.7 2.5 2.9 2.5 2.3 2.8 1.6 0.3 -1 -1 -1 -1 -1 -1 -1 -1 -1 -1 -1 -1 -1 -1 -1 5.1 6.2 5.8 5.5 5.7 5.7 5.9 6 5.8 6 5.8 5.6 6.8 7.2 7.1 7.1 7.5 7.6 7.6 7.6 7.5 7.3 7.3 7.3 7.2 7.6 4.3 4.8 3.6 5.7 2.8 5.1 5.8
13.2 13.4 13.4 13.5 13.5 13.6 13.4 13.2 13.1 12.9 12.8 12.6 12.5 11.9 11.4 11.2 8.7 9.1 9.9 10.8 11.6 12.5 13.4 14.3 13.5 12.3 11.4 10.9 10.1 9.3 9.3 9.8 8 6.4 4.5 4.3 4.7 5 6.2 8.3 9.1 9.8 10.5 11.1 11.2 11.3 11.3 11.4 11.4 11.5 11.6 11.6 11.7 11.6 11.4 11.3 10.2 10 9.8 9.5 5.4 8.1 9.7 10.3 10.7 9.7 9.8 10.1 10.7 10.5 10.4 10.4 10.3 10.4 10.5 -1 -1 -1 -1 -1 -1 -1 -1 -1 -1 -1 -1 -1 -1 7.5 8.4 8.5 8.5 8.8 9.2 8.9 8.5 8.4 8.5 8.6 8.2 8.4 8.5 8.7 8.9 9.1 7.7 5.6 3.3 1.5 1.4 4.2 -1 -1 -1 -1 -1 -1 -1 -1 -1 0.3 1.6 2.9 3.3 3.3 3.4 3.2 3.1 3.3 3.4 2.7 2.2 -1 -1 -1 -1 2.1 0.4 2 2.2 2.4 2.6 2.6 2.6 2.4 2.6 0.9 3 1.8 0.7 -1 -1 -1 -1 -1 -1 -1 -1 -1 -1 -1 -1 -1 -1 -1 -1 -1 4.4 4.9 5.1 5.8 5.9 5.8 5.6 5.8 6.1 5.9 6.4 6.6 7.5 7.1 7.2 7.3 7.3 7.3 7.3 7.3 7.2 7.2 7.3 7.4 6.9 4 4.8 5.5 3.7 4.5 5.3 6.2
13.4 13.4 13.6 13.6 13.7 13.6 13.5 13.3 13.1 13 12.5 10.7 9.4 9.9 10.4 10.3 9.2 9.6 10.5 11.4 12.2 13.1 13.9 14.8 13.9 12.7 11.7 11.5 12.6 12.2 9.2 9.5 9.3 7.8 6 4.1 4.4 4.8 6.7 8.8 9.8 10.5 11.2 11.3 11.2 11.2 11.2 11.3 11.4 11.4 11.6 11.7 11.6 11.5 11.4 11.1 10.5 10 9.2 8.6 10.2 10.1 10.8 11.9 11.6 10.2 10.5 10.8 11.4 11 11 10.9 10.9 11.1 11.1 11.3 9.3 -1 -1 -1 -1 -1 -1 -1 -1 -1 -1 3.8 6.3 8.9 9.2 8.9 9.1 9.3 9.4 9 8.6 8.4 8.3 8.4 8.2 8.5 8.8 8.9 9.2 8.6 6.6 8.1 3.8 2.3 0.3 3.7 -1 -1 -1 -1 -1 -1 -1 -1 -1 0.9 2.6 3.2 3.3 3.4 3.5 3.6 3.6 5.6 3.4 3.3 -1 -1 -1 -1 -1 2.4 0.4 2.1 2.1 2.2 2.4 2.4 2.4 2.4 2.2 3.2 2.3 1.1 -0.1 -1 -1 -1 -1 -1 -1 -1 -1 -1 -1 -1 -1 -1 -1 -1 -1 -1 -1 3 4.8 5.6 5.8 5.3 5.2 5.5 6 6.1 6.6 7.1 7.6 7.4 7.1 7 7 7 7 6.3 7 7.2 7.6 7.9 6.2 -1 3.4 4.9 3.3 4.5 5.2 5.9
15.7 13.6 13.6 13.7 13.8 13.7 13.5 13.3 12.5 10.9 10.7 9.9 9.9 9.8 10.2 10.7 10.2 10.1 10.9 11.8 12.7 13.5 14.4 15.3 14.3 12.9 12.1 12.7 14.6 12.4 9.2 9.6 10.1 9.3 7.5 5.1 4.2 5.1 7.2 9.3 10.5 11.2 11.4 11.3 11.2 11.1 11.1 11.2 11.3 11.5 11.7 11.6 11.5 11.5 11.4 11 10.6 10 8.5 5.9 10 10.8 11.4 12.1 12.1 10.8 11.2 11.6 12 11.7 11.5 11.5 11.6 11.6 11.5 11.5 11.4 11.7 -1 -1 -1 -1 -1 -1 -1 8 9.6 8.6 7.2 9.9 10 9.7 9.4 9.5 9.6 9.3 8.9 9.1 8.9 8.5 8.3 8.6 8.9 9 8 7.2 7.1 7.5 6.3 2.8 1.2 3.6 -1 -1 -1 -1 -1 -1 -1 -1 -1 2.1 3.2 3.2 3.3 3.4 3.5 3.6 3.6 3.5 3.4 3.3 -1 -1 -1 -1 -1 3 2 2.1 2.1 2.2 2.3 2.2 1.4 2.3 2.2 3.1 1.8 0.7 -1 -1 -1 -1 -1 -1 -1 1.7 2.6 2.3 -1 -1 -1 -1 -1 -1 -1 -1 -1 -1 5.5 4.7 4.9 4.9 5 5.3 5.9 6.3 6.8 7.2 7.2 7 6.6 6.6 6.6 6.6 6.4 5.2 5.5 6.5 -1 -1 -1 -1 3.7 3.6 3.6 3.7 4.4 5.1
19.6 17.3 13.9 13.9 13.9 13.7 12.6 12.4 12.1 11.9 10.9 10.6 10.6 10.5 10.4 10.7 10.8 10.5 11.4 12.3 13.2 14 14.9 15.4 15.4 14.2 13.6 14.2 15 10.8 9.3 9.8 10.2 10.7 9 6.6 4.2 5.6 7.7 9.8 11.2 11.4 11.3 11.2 11.1 11 11 11.2 11.5 11.7 11.7 11.6 11.5 11.4 11.4 11.1 10.8 10 7.5 9.6 10.6 11.6 11.8 11.7 11.8 11.5 11.9 12.3 12.7 12.3 12.1 12.1 12 11.9 11.8 11.7 11.5 9.7 -1 10.3 8.6 8.2 9 10.8 10.3 10.7 10.6 10.4 8.5 10.8 10.8 10.5 10.2 9.9 9.8 9.5 9.6 9.8 9.5 9.4 9.3 9.4 9.3 9.2 8.3 8 8 8 6.8 2.7 1.7 3.8 -1 -1 -1 -1 -1 -1 -1 -1 -1 2.9 3.2 3.2 3.2 3.3 3.4 3.5 6.6 3.4 3.3 3.3 -1 -1 -1 -1 -1 2.4 2 2.1 2.1 2.5 2.8 2.5 2.2 2.9 2.2 1.4 0.6 0.1 -1 -1 -1 -1 -1 -1 -1 2.8 2.6 2.5 -1 -1 -1 -1 -1 -1 -1 -1 -1 -1 3.5 5.2 4.7 4.7 4.9 5.1 6 6.4 6.7 6.7 6.6 6.6 6.2 6.2 6.2 6.2 5.4 4.2 4.2 4.3 -1 3.1 3.3 3.2 3.2 2.2 2.2 2.2 3.3 4.4
27.7 23.2 16.1 14.6 14.1 13.9 13.6 13.4 13 11.8 10.6 11.4 11.3 11.2 11.1 11 11.1 11.1 11.9 12.8 13.4 13.8 14.2 14.6 15.3 15.8 15.3 15.9 13.5 10.4 9.9 10.3 10.8 11.2 11.1 7.9 4.6 4 4.6 7.6 10.5 10.2 9.9 9.6 10.1 11.1 11.2 11.4 11.6 11.7 11.6 11.5 11.4 11.3 11.3 11.3 11 10.8 5.7 10.7 11.3 12.2 12.2 12.1 12 11.9 12 12.3 12.5 12.5 12.5 12.4 12.2 12.1 11.9 12 11.5 9.7 7.9 9.2 9.9 10.3 11.5 11.2 11.4 11.3 11.1 10.9 10.2 11.4 11.2 10.9 10.6 10.3 10.2 9.8 10.3 10.5 10.2 10 9.6 9.5 9.4 9.3 8.5 8.5 8.5 8.1 7.2 4.3 1.8 4.7 -1 -1 -1 -1 -1 -1 -1 -1 -1 3.2 3.2 3.2 3.2 3.2 3.3 3.4 3.3 3.1 3.2 2.3 -1 -1 -1 -1 -1 2.2 2 2 2.4 2.6 2.7 2.8 2.6 2.2 2.4 -1 -1 -1 -1 -1 -1 -1 -1 -1 3.1 3 2.9 2.8 3.3 -1 -1 -1 -1 -1 -1 -1 -1 -1 -1 5.3 5.4 4.7 4.9 5.1 5.7 6.1 6.1 6.1 6 6 5.8 5.8 5.8 5.9 4.9 3.9 3.3 -1 -1 3.3 3.5 3.3 3.4 4.1 2.2 2.2 2.2 4.1
34.2 29.1 20.5 16.9 15.4 14.9 14.6 14 12.7 11.5 11.7 12.1 12 11.9 11.8 11.6 11.5 11.5 11.9 12.3 12.6 13 13.4 13.9 14.6 15.3 15.3 14.9 13.3 11.3 11.8 12 11.7 11.3 11.1 11 9.3 7.6 6.1 7.2 7.4 7.1 9.3 11.1 11.2 11.2 11.4 11.6 11.7 11.6 11.5 11.4 11.3 11.3 11.3 11.2 11.2 9.4 9 11.7 12.3 12.6 12.4 12.2 12.1 12 12 12 12 12.1 12.2 12 11.9 11.7 11.7 12.1 12.1 12 10.3 10.3 11.3 11.4 11.6 11.8 11.8 11.6 11.5 11.3 11.3 11.7 11.6 11.3 10.9 10.7 10.8 10.6 11.1 11.2 10.6 10.2 9.9 9.7 9.5 9.4 8.9 8.9 8.5 8.1 7.7 5.8 2.1 1.6 -1 -1 -1 -1 -1 -1 -1 -1 -1 -1 3.2 3.2 3.2 3.3 3.3 4.1 3.1 2.9 3.2 -1 -1 -1 -1 -1 -1 2.1 2 2 2.1 2.1 2.3 2.4 2.6 2.4 2.4 -1 -1 -1 -1 -1 -1 -1 -1 3.3 3.2 2.9 2.9 2.9 4.1 2.8 -1 -1 -1 -1 -1 -1 -1 -1 -1 -1 4.9 5 5.1 5.3 5.2 5.6 5.5 5.5 5.4 5.3 5.4 5.4 5.4 5.4 5.8 5.3 4 -1 3.6 3.7 3.7 3.8 4.7 4.1 2.2 2.2 2.2 4.2
35 33.8 27 19.9 17.1 15.9 14.9 13.7 12.4 11.8 12.8 12.8 12.7 12.6 12.5 12.3 11.9 11.4 11.1 11.5 11.8 12.2 12.6 13.2 13.9 14.1 13.9 13.7 13.2 12.8 12.4 12.1 11.7 11.4 11.1 10.9 10.9 9.7 6.6 5.8 8.5 11.1 11.2 11.2 11.3 11.4 11.6 11.8 11.8 11.6 11.5 11.4 11.3 11.2 11.2 11.2 11.1 6.7 10.6 11.8 12.5 12.6 12.4 12.3 12.1 12 12.1 12 12 11.9 11.9 11.7 11.5 11.5 11.9 12.3 12.2 12.2 12.1 12 11.9 12 12.2 12.3 12.2 12 11.8 11.7 11.5 11.7 11.9 11.6 11.3 11.1 11.2 11.4 11.6 11.3 10.8 10.5 10.2 10 9.8 9.5 9.3 9 8.7 8.4 8.1 7.1 2.6 2.4 -1 -1 -1 -1 -1 -1 -1 -1 -1 -1 3.3 3.4 3.6 3.7 6 3.3 3.1 2.9 2.7 -1 -1 -1 -1 -1 -1 0.8 2 2.1 2.2 2.2 2.2 2.2 2.2 2.3 2.4 -1 -1 -1 -1 -1 -1 -1 2.9 3.4 2.9 2.7 2.7 2.8 2.8 3.3 2.8 -1 -1 -1 -1 -1 -1 -1 -1 -1 -1 -1 5.4 5.5 5.7 5 4.9 4.7 4.6 4.7 5.2 5.1 4.9 4.9 5.2 5.6 5.3 -1 4 4.1 4.5 4.6 4.2 3.8 3.4 3.9 4 5
35.5 35.4 30.2 19 19.1 17.1 14.6 13.4 12.2 12.8 13.6 13.5 13.4 13.3 13 12.5 11.9 11.5 11 10.8 11.1 11.4 11.8 12.4 12.8 12.6 12.5 12.2 11.8 12.1 12.4 12.1 11.7 11.4 11.1 10.9 8.3 4.3 7.6 10.4 11.2 11.2 11.3 11.4 11.5 11.6 11.8 12 11.8 11.6 11.4 11.3 10.2 11.2 11.2 11 10.7 5.8 11.3 12.1 12.4 12.6 12.5 12.3 12.2 12.1 12.1 12 11.9 11.7 11.8 11.6 11.3 11.7 12.1 12.4 12.4 12.3 12.6 13.1 12.6 12.6 12.7 12.7 12.5 12.3 12.2 12 11.9 11.8 12.2 12 11.7 11.5 11.4 12.1 11.5 11.3 11.1 10.8 10.5 10.3 10.2 10 9.7 9.5 9.2 9.1 8.4 7.4 5.7 3.6 4.1 -1 -1 -1 -1 -1 -1 -1 -1 -1 -1 3.5 3.8 4.1 5.6 3.5 3.2 3 2.2 0.2 -1 -1 -1 -1 -1 1.4 2.1 2.2 2.2 2.3 2.3 2.3 2.3 2.3 2.4 -1 -1 -1 -1 -1 -1 -1 3.3 3.4 2.8 2.8 2.8 2.8 2.8 2.5 3.8 -1 -1 -1 -1 -1 -1 -1 -1 -1 -1 4.3 5.4 5.7 6.1 5.5 4.6 4.4 4.1 4.3 4.7 5.1 4.7 4.5 4.6 5 5.3 -1 3.9 3.8 4.1 4.6 4.6 4.2 3.8 4.4 5.1 5.7
33.7 31.2 24.9 21.4 25.6 18.4 14.5 13.1 12.9 13.9 14.3 14.2 14.1 13.6 13 12.5 12 11.5 11.1 10.6 10.4 10.6 11 11.5 11.4 11.2 11 10.7 10.1 9.5 10.5 11.6 11.8 11.4 11.1 10.9 5.8 4.4 7.9 11.2 11.3 11.4 11.5 11.6 11.7 11.8 11.9 12 11.8 11.6 11.3 11.3 10.8 10 11.1 11.4 11.3 5.1 11.6 12.1 12.3 12.6 12.5 12.4 12.2 12.2 12.1 11.9 11.7 11.6 11.8 12.1 11.9 11.9 12.3 12.6 12.6 13.1 13.2 13.3 13.3 13.1 13.2 13 12.8 12.7 12.5 12.4 12.2 12.1 12.2 12.3 12.1 11.9 11.7 12.6 12.5 12 11.4 11.1 11 10.9 10.8 10.4 10 10 9.8 9.9 8.8 7.8 8.1 3.7 3.4 -1 -1 -1 -1 -1 -1 -1 -1 -1 -1 3.5 3.7 4.1 3.5 3.3 3.1 2.8 2.4 0.4 -1 -1 -1 -1 -1 2.4 2.1 2.2 2.3 2.3 2.4 2.4 2.4 2.4 2.9 -1 -1 -1 -1 -1 -1 3.5 3.2 3.5 2.7 2.8 2.8 2.8 2.7 2.4 2.3 3.8 -1 -1 -1 -1 -1 -1 -1 -1 -1 1.1 4.8 6.2 7 5.8 5 3.6 3.5 3.8 4.3 4.7 4.8 4.3 4 4.3 4.6 -1 2.8 2.9 4 4.3 4.6 4.6 4.2 4.8 5.5 5.8
23.7 23.4 24.2 32.5 34 27.6 16.9 13 13.9 14.9 15 14.7 14.2 13.6 13 12.5 12.1 11.6 11.1 10.7 10.2 10.1 10.3 10.1 9.9 9.7 9.6 9.1 8.5 7.8 7.9 9 10 11.1 11.1 6.7 5 9.2 9.3 11.6 11.5 11.6 11.7 11.8 11.9 12 12.1 12 11.8 11.5 11.2 11.1 11 11 10.7 10.3 11 7.8 11.8 12.1 12.3 12.5 12.6 12.4 12.2 12.1 12 11.8 11.6 11.4 11.9 12.7 12.8 13.2 13 12.8 12.9 13.1 13.2 13.3 13.1 13.7 13.5 13.3 13.2 13 12.9 12.7 12.6 12.4 12.4 12.5 12.2 12 12.1 12.1 11.9 11.9 13.2 12 11.7 11.6 11.1 10.5 9.9 10.1 10.7 10.2 9.7 9.4 9.5 7.6 4.2 3.2 -1 -1 -1 -1 -1 -1 -1 -1 -1 -1 -1 5.4 3.1 3.1 3.2 3.2 1.3 -1 -1 -1 -1 -1 1.5 3 2.5 2.3 2.4 2.4 2.5 2.5 2.5 2.6 3.4 -1 -1 -1 -1 -1 4.3 3.1 3.3 3.5 2.7 2.8 2.8 2.8 2.5 2.3 2.1 4.4 1.8 -1 -1 -1 -1 -1 -1 -1 -1 -1 1.8 4.6 6.9 6.1 5.3 4.9 4.4 3.5 3.9 4.2 4.7 4.4 4.2 4.3 4.9 -1 3.7 4.1 4 4.2 4.4 4.7 4.6 5.2 5.6 5.8
